ply
format ascii 1.0
element vertex 1047
property float x
property float y
property float z
property uchar red
property uchar green
property uchar blue
end_header
-22.478699 -2250.123047 1149.025269 51 25 16
-25.390869 -2265.943115 1149.056641 64 26 18
-28.814362 -2285.485596 1149.075195 65 36 16
-24.490845 -2264.166748 1149.112793 56 23 16
-22.275879 -2269.313477 1149.194214 69 28 18
-29.670563 -2285.349121 1149.199707 62 32 14
-29.459808 -2267.214600 1149.229980 63 25 16
-28.134033 -2272.674316 1149.305420 72 26 17
-28.748047 -2266.663330 1149.339844 68 26 16
-26.976959 -2277.597656 1149.357666 65 30 24
-25.900604 -2285.169434 1149.399170 65 36 17
-29.575073 -2285.187988 1149.500000 61 34 14
-24.225769 -2267.811279 1149.513428 69 30 17
-30.007690 -2268.647461 1149.547119 63 26 16
-24.986725 -2255.385254 1149.584229 59 28 17
-28.530060 -2254.612793 1149.621338 70 36 27
-22.366150 -2257.345947 1149.639404 49 20 13
-26.504364 -2286.894531 1149.699829 64 37 16
-25.764893 -2264.472168 1149.716431 61 21 15
-23.712219 -2271.828125 1149.745850 72 30 16
-23.398926 -2271.716797 1149.869019 68 30 16
-15.277283 -2292.317383 1149.878052 64 40 24
-23.539185 -2249.958496 1149.882812 48 22 13
-27.136292 -2263.979004 1149.897217 59 25 16
-29.236938 -2285.826904 1149.898926 58 33 14
-31.376862 -2262.838867 1150.099121 46 21 14
-18.413055 -2287.612793 1150.133545 58 34 17
-24.609222 -2266.432617 1150.206299 65 28 16
-28.393311 -2285.816162 1150.207031 57 33 15
-30.025940 -2265.949463 1150.213257 65 31 22
-24.199585 -2286.705811 1150.259033 60 34 15
-27.207611 -2284.229248 1150.268066 67 38 19
-26.258972 -2284.312500 1150.335205 59 34 16
-22.967682 -2256.302490 1150.357666 49 25 15
-22.917999 -2272.590088 1150.387451 66 29 15
-28.534302 -2283.222900 1150.453125 56 32 14
-23.707977 -2270.810547 1150.479614 65 30 16
-20.965210 -2276.009033 1150.585815 56 29 19
-24.687927 -2265.341064 1150.593872 67 26 20
-25.547333 -2259.141602 1150.626709 65 27 17
-25.792572 -2257.658691 1150.683594 68 33 23
-27.051178 -2274.456543 1150.701538 63 30 24
-25.032166 -2277.061523 1150.703369 63 31 25
-29.385498 -2284.021240 1150.723999 56 32 13
-33.392700 -2252.377441 1150.734619 53 27 17
-26.200378 -2272.291748 1150.787598 68 28 21
-16.006561 -2246.553467 1150.793701 56 33 22
-18.807892 -2254.056152 1150.942139 64 33 26
-23.757355 -2275.552246 1150.978760 64 32 18
-23.105438 -2286.163574 1150.984863 56 33 17
-23.255737 -2271.697754 1150.997803 67 33 17
-23.898315 -2284.077881 1151.050537 59 34 14
-28.294647 -2286.252197 1151.087158 55 33 17
-28.086273 -2268.179443 1151.120239 60 29 20
-10.943359 -2279.454834 1151.135620 72 41 18
-23.076233 -2277.128662 1151.160767 64 34 24
-10.718323 -2279.327637 1151.167603 72 41 19
-20.774384 -2255.646484 1151.276001 65 32 23
-29.827789 -2261.631348 1151.288818 45 24 16
-22.770996 -2272.526855 1151.362305 58 30 16
-26.949097 -2279.385986 1151.480957 56 32 17
-30.266571 -2269.477295 1151.553101 46 26 15
-23.614624 -2263.987061 1151.780762 65 29 20
-21.409210 -2282.047119 1151.812012 64 38 17
-21.372223 -2253.259766 1151.924683 64 39 23
-21.160034 -2269.235840 1152.063477 56 30 17
-21.072327 -2262.005371 1152.193604 51 24 15
-25.411896 -2279.844727 1152.334961 49 30 17
-19.813171 -2256.162109 1152.368408 52 29 17
-24.532684 -2272.778809 1152.435791 51 28 15
-22.937286 -2265.708008 1152.715942 64 34 24
-19.067719 -2263.613037 1152.812256 50 24 14
-11.146393 -2279.102539 1152.823242 66 43 24
-30.991638 -2265.487793 1152.844604 46 29 16
-32.878906 -2259.924805 1152.864502 47 30 17
-18.828186 -2283.241943 1152.923340 59 36 17
-23.612793 -2275.823486 1153.052490 56 36 22
-22.052704 -2272.014893 1153.355469 53 32 19
-1.290222 -2229.614746 1154.836182 11 7 4
-75.885071 -2239.212646 1165.549194 52 32 16
-71.700867 -2236.806641 1165.882935 50 32 17
-78.984009 -2242.407715 1165.936279 55 31 16
-76.601074 -2243.110596 1166.077148 51 31 15
-76.021271 -2248.082764 1166.382080 57 35 16
-100.755981 -2210.413574 1166.839355 64 34 19
-64.509857 -2239.363770 1167.628296 54 31 17
-70.898376 -2243.239014 1167.655518 69 42 22
-77.454865 -2250.806396 1167.661133 62 37 19
-79.059326 -2243.829346 1168.383545 60 28 16
-84.990051 -2254.579834 1168.574097 95 58 26
-84.315460 -2253.631104 1168.744019 66 40 18
-79.017303 -2236.734375 1168.860229 58 29 17
-85.315887 -2254.327148 1169.039673 105 65 30
-71.692352 -2234.735840 1169.077637 59 30 17
-79.988861 -2240.480957 1169.119263 60 29 17
-80.476562 -2248.048828 1169.164795 64 32 16
-85.994232 -2255.229736 1169.282593 93 56 24
-84.479065 -2251.453613 1169.417725 91 48 22
-63.041718 -2234.410889 1169.521851 71 43 26
-86.794312 -2256.065430 1169.671265 107 65 32
-86.996521 -2256.296875 1169.753296 94 55 23
-87.548035 -2256.816162 1169.793335 96 56 25
-65.514923 -2237.633545 1169.849854 67 36 21
-84.580109 -2248.293945 1170.122681 66 31 17
-80.637787 -2250.137207 1170.167358 75 39 20
-66.663635 -2237.288330 1170.263550 68 35 21
-71.895447 -2241.059570 1170.286133 77 40 24
-75.765564 -2246.601562 1170.300537 71 33 20
-86.067474 -2251.753418 1170.318359 99 47 23
-81.339417 -2241.263672 1170.347290 64 27 16
-84.776367 -2252.337402 1170.408691 86 47 23
-86.806702 -2254.644043 1170.485107 111 65 37
-77.540802 -2246.358643 1170.555298 74 34 19
-79.714996 -2244.604248 1170.671875 80 41 25
-85.926086 -2251.297852 1170.842407 74 35 19
-87.385559 -2253.683594 1170.949951 105 55 28
-62.068024 -2231.720215 1170.953735 76 43 28
-88.918060 -2257.332520 1170.958862 114 64 32
-83.173859 -2249.371582 1171.129517 84 42 26
-81.929901 -2245.507812 1171.132690 69 30 17
-82.108795 -2238.080566 1171.186035 62 26 16
-75.359497 -2235.185303 1171.281250 60 26 17
-86.794342 -2255.228516 1171.286987 83 47 23
-85.175568 -2252.529541 1171.293213 90 46 22
-88.771149 -2258.301514 1171.312012 111 72 41
-72.429077 -2230.097900 1171.384766 99 50 23
-74.855377 -2229.834473 1171.393799 109 54 29
-86.554596 -2254.496094 1171.437744 81 45 22
-87.799316 -2255.491943 1171.521118 101 53 26
-85.125183 -2250.787842 1171.599609 86 39 19
-91.102051 -2259.382568 1171.603760 174 114 62
-87.554657 -2252.603516 1171.666016 106 52 28
-91.128662 -2259.336426 1171.685547 174 112 62
-85.009094 -2257.925781 1171.707886 91 54 26
-89.243774 -2257.550049 1171.828369 112 69 39
-92.268280 -2261.662842 1171.832764 146 87 40
-92.179535 -2263.394287 1171.875244 166 105 53
-87.761078 -2256.142578 1171.890015 116 67 39
-77.199036 -2236.649414 1171.936401 64 27 18
-96.727936 -2189.466309 1171.945190 58 33 16
-87.730316 -2255.977783 1171.960938 116 67 39
-84.696075 -2251.576660 1172.072876 89 43 22
-82.039551 -2245.673340 1172.149048 108 60 35
-87.772888 -2257.327881 1172.227173 136 90 55
-63.604919 -2235.234375 1172.229492 64 27 18
-88.918182 -2256.497314 1172.237671 115 70 40
-88.950592 -2258.449463 1172.270874 131 84 46
-87.716431 -2254.150146 1172.323975 104 53 31
-87.464935 -2249.143311 1172.332642 76 32 19
-88.788666 -2261.208252 1172.344482 185 124 76
-85.871277 -2251.032227 1172.371338 90 43 28
-85.527588 -2250.861572 1172.403198 114 66 39
-88.197754 -2262.486328 1172.432129 93 57 28
-83.107483 -2245.163818 1172.463013 109 64 37
-90.970673 -2260.676025 1172.497192 174 106 56
-61.681366 -2231.929199 1172.518433 70 34 22
-63.836395 -2226.914551 1172.523438 37 22 14
-88.995483 -2262.323975 1172.594727 175 112 66
-91.367004 -2256.913818 1172.605347 128 72 28
-89.190948 -2263.643066 1172.609497 157 103 56
-88.769562 -2255.831299 1172.640381 118 67 40
-87.180298 -2253.400146 1172.643433 117 67 40
-68.301941 -2229.704102 1172.656006 69 31 21
-69.834442 -2229.694092 1172.677368 116 61 30
-89.295044 -2255.824951 1172.761597 109 60 35
-71.181305 -2233.834961 1172.824707 68 27 18
-91.251434 -2257.152100 1172.833496 134 78 32
-71.237457 -2228.193848 1172.859375 121 63 35
-72.500885 -2232.535645 1172.865479 127 60 29
-70.465454 -2238.662354 1172.941040 79 33 21
-77.512054 -2232.417725 1172.957275 137 56 36
-74.491760 -2242.323730 1172.958130 77 31 20
-74.642120 -2232.227295 1172.960693 139 61 35
-86.359283 -2366.853516 1173.040405 71 42 19
-85.497162 -2249.161377 1173.062866 88 41 27
-88.903961 -2256.572998 1173.129761 114 60 30
-88.393585 -2256.425781 1173.130249 121 71 40
-88.381683 -2254.706055 1173.155518 118 69 44
-92.380127 -2259.355713 1173.217407 184 107 59
-72.797638 -2230.267578 1173.249634 122 60 38
-92.384308 -2262.631348 1173.269653 175 105 59
-92.349945 -2260.963867 1173.279907 169 99 56
-89.023926 -2257.802490 1173.330444 137 84 46
-89.471252 -2255.078857 1173.333374 116 63 39
-85.309692 -2246.342529 1173.338867 73 25 17
-61.206238 -2229.027588 1173.364868 72 41 28
-92.788055 -2257.187988 1173.387451 152 84 40
-84.719116 -2239.203369 1173.421143 72 25 17
-89.159149 -2253.911377 1173.442871 99 46 27
-83.537354 -2239.219482 1173.448242 67 24 16
-90.037994 -2264.109375 1173.476074 171 110 64
-76.987732 -2231.833984 1173.501343 151 68 48
-89.493622 -2262.631836 1173.507080 177 111 69
-81.083466 -2229.114014 1173.510498 74 26 18
-87.813293 -2252.347656 1173.546997 87 38 22
-92.847565 -2257.424316 1173.561890 160 90 45
-73.128540 -2234.915283 1173.564941 68 25 18
-92.829285 -2257.429688 1173.566772 161 90 45
-92.344513 -2264.113525 1173.619507 178 113 64
-74.426697 -2232.472900 1173.620972 145 63 38
-81.012329 -2245.475098 1173.623779 84 32 22
-87.439056 -2252.890381 1173.647461 87 41 22
-89.664398 -2257.386963 1173.688599 126 70 37
-84.130127 -2252.153320 1173.729980 98 48 29
-89.746521 -2256.177979 1173.741943 113 57 31
-86.155151 -2248.608887 1173.743408 90 41 27
-90.003906 -2256.006836 1173.762329 121 66 43
-89.175262 -2255.796875 1173.792480 125 71 45
-84.136139 -2229.581787 1173.810547 74 25 18
-74.753265 -2230.178955 1173.913330 137 63 44
-90.045685 -2255.469482 1174.023438 105 50 28
-89.461456 -2258.262695 1174.054565 157 98 62
-85.607117 -2251.081787 1174.061523 93 42 28
-86.713165 -2259.622070 1174.062866 95 53 27
-89.612885 -2257.019287 1174.083130 121 62 32
-90.541382 -2271.082764 1174.089355 120 78 41
-91.497406 -2367.966064 1174.102661 66 39 20
-88.915070 -2257.065430 1174.120117 149 93 58
133.768311 -1672.577271 1174.170776 44 26 12
-88.271942 -2255.709961 1174.179321 96 49 25
-93.344757 -2259.855225 1174.180420 193 105 64
-78.794128 -2232.913330 1174.249146 126 46 30
-83.870117 -2229.533691 1174.279053 76 25 19
-82.936249 -2243.549316 1174.347168 77 27 19
-89.841370 -2262.319580 1174.353027 136 80 46
-90.020538 -2256.523926 1174.369385 127 69 42
-92.995636 -2261.628418 1174.384277 181 103 63
-76.206543 -2232.457520 1174.398438 153 68 48
-69.830963 -2221.555176 1174.399658 65 31 20
-92.449982 -2261.852783 1174.401001 178 101 61
-93.217560 -2263.135254 1174.410034 195 117 71
-77.503967 -2230.349609 1174.457153 168 81 65
-87.220581 -2260.844238 1174.510864 94 53 26
-73.302124 -2230.863281 1174.520386 161 76 53
-70.447540 -2229.991211 1174.557373 127 62 41
-89.252319 -2254.082520 1174.579468 106 49 28
-93.126251 -2264.754639 1174.623047 193 125 75
-90.344116 -2362.959229 1174.630737 85 38 21
-90.339050 -2362.937256 1174.634033 73 41 22
-90.103210 -2257.686523 1174.672119 140 75 45
-90.247772 -2362.520996 1174.679932 72 41 22
-85.920715 -2250.160645 1174.684082 93 42 29
-87.975891 -2262.975342 1174.689697 92 54 27
-84.286682 -2247.677246 1174.694824 86 33 22
-62.975464 -2227.740479 1174.706787 72 38 18
-86.584564 -2250.305176 1174.707764 95 42 30
-67.099243 -2227.996338 1174.709961 91 46 24
-90.361298 -2256.481689 1174.748413 117 58 32
-73.397400 -2228.798340 1174.815674 157 76 55
-84.477753 -2285.044678 1174.819214 82 48 18
-90.954742 -2271.343506 1174.831421 122 76 38
-82.852814 -2286.239258 1174.878052 81 46 18
-88.970520 -2272.092529 1174.885132 97 58 25
-90.484924 -2271.919922 1174.912842 126 72 28
-93.189697 -2270.020508 1174.919922 128 73 29
-89.672699 -2255.940918 1174.920654 129 69 44
-78.640686 -2231.636963 1174.930420 176 85 70
-90.297516 -2271.851562 1174.940674 125 72 28
-82.292816 -2287.342529 1174.959717 78 44 17
-92.155365 -2368.146729 1174.979980 70 39 19
-89.922119 -2258.576904 1175.071411 173 103 69
-83.532471 -2285.070312 1175.119019 81 46 18
-77.218567 -2288.406250 1175.130859 93 55 23
-85.964813 -2244.618408 1175.139404 77 24 18
-89.370972 -2257.099121 1175.164795 168 99 65
-69.562866 -2226.130615 1175.171631 83 33 25
-91.582886 -2271.648438 1175.206055 145 86 38
-69.027618 -2227.547119 1175.214355 122 64 41
-86.092773 -2247.337646 1175.232666 95 38 28
-89.871918 -2272.232910 1175.236206 107 63 29
-88.758698 -2272.902832 1175.263184 96 55 23
-74.657990 -2228.375977 1175.285767 95 33 27
-90.457123 -2256.796387 1175.287354 140 76 47
-92.990814 -2266.396240 1175.290161 179 118 66
-75.546448 -2291.525635 1175.301514 73 42 17
-88.113708 -2364.839844 1175.302490 85 42 24
-72.088013 -2236.587891 1175.317505 71 23 17
-73.749908 -2284.760254 1175.318848 57 35 16
-94.487793 -2259.107422 1175.369873 200 108 64
-89.695618 -2271.337646 1175.372314 102 59 26
-93.799103 -2267.656250 1175.377686 173 113 62
-92.583435 -2371.525635 1175.402710 77 40 21
-92.552032 -2271.459229 1175.403320 178 118 66
-95.946259 -2190.817139 1175.406250 82 39 24
-88.711365 -2274.046875 1175.410400 95 55 22
-74.968567 -2230.887207 1175.420776 170 78 60
-79.655853 -2232.949463 1175.453003 125 41 28
-86.849854 -2364.818359 1175.456543 87 51 30
-74.392456 -2240.128906 1175.463623 85 31 22
-75.623444 -2228.561523 1175.470215 170 77 61
-75.417236 -2293.881348 1175.476196 69 43 20
-91.379822 -2271.451660 1175.480103 138 81 35
-89.249268 -2280.552246 1175.514893 111 66 29
-85.015472 -2284.820801 1175.517090 86 50 20
-87.310120 -2253.814941 1175.550049 108 50 31
-90.593323 -2271.790283 1175.551025 109 62 29
-87.256866 -2284.434082 1175.559204 82 40 20
-89.703552 -2273.270508 1175.563232 99 55 24
-91.332184 -2272.751465 1175.612793 129 72 28
-90.452942 -2257.886719 1175.613647 164 95 64
-91.237244 -2264.461182 1175.615845 97 54 29
-83.751587 -2236.031006 1175.625977 102 31 23
-88.544769 -2273.693115 1175.662109 96 55 22
-93.509857 -2263.871338 1175.667114 203 126 78
-93.028290 -2262.565430 1175.686035 204 118 72
-64.827148 -2227.619385 1175.693359 84 41 21
-62.961243 -2231.678711 1175.703857 73 25 21
-86.134491 -2285.573486 1175.752808 88 52 21
-87.582428 -2271.934326 1175.757935 92 55 26
-91.214905 -2256.363770 1175.761230 126 70 46
-82.793579 -2286.729248 1175.771484 81 42 18
-92.342773 -2258.492432 1175.770996 134 76 52
-88.573761 -2275.005127 1175.774780 94 53 21
-86.198181 -2247.405518 1175.776001 87 30 21
-72.630402 -2230.876221 1175.779785 92 31 25
-67.923767 -2287.187256 1175.781616 60 37 19
-81.046478 -2235.521484 1175.782104 101 31 23
-93.828278 -2269.027100 1175.789185 155 96 49
-90.767792 -2369.906006 1175.802124 76 40 21
-75.375916 -2292.871826 1175.835205 76 43 19
-80.556549 -2227.770752 1175.836792 88 27 23
-85.630981 -2250.310791 1175.836914 93 38 26
-87.688599 -2251.355469 1175.850830 104 47 34
-90.537994 -2259.193115 1175.860107 175 101 68
-84.308716 -2285.570068 1175.861694 83 45 19
-90.483124 -2270.684326 1175.875000 110 63 29
-91.874817 -2370.424072 1175.878174 78 39 21
-86.680756 -2283.244629 1175.890381 91 47 22
-83.036804 -2286.216797 1175.909424 81 41 18
-89.193634 -2260.571777 1175.939697 181 108 72
-84.151367 -2245.867920 1175.945190 94 36 27
-90.339569 -2272.505127 1175.953735 106 58 26
-90.359039 -2272.569336 1175.965942 106 58 26
-93.897461 -2265.133545 1175.988037 192 123 74
-92.070526 -2272.055664 1176.010498 147 83 36
-90.917053 -2256.043945 1176.015259 117 53 30
-89.223480 -2273.081543 1176.046387 99 54 23
-87.936371 -2283.862061 1176.055054 87 43 22
-70.727661 -2227.833496 1176.068848 147 70 47
-91.174805 -2257.394775 1176.093262 145 79 51
-85.478943 -2285.773682 1176.147827 87 48 20
-87.335968 -2272.718994 1176.155518 95 56 25
-83.248352 -2288.447998 1176.159302 83 42 19
-85.467438 -2286.022461 1176.162109 86 47 20
-86.700897 -2284.251709 1176.176636 96 57 23
-86.765106 -2284.155273 1176.181885 96 57 23
-89.466217 -2275.373535 1176.188965 96 52 21
-79.358795 -2232.238770 1176.192749 173 71 60
-93.867249 -2270.395508 1176.199219 126 67 28
-87.859192 -2365.790771 1176.218750 90 49 29
-87.018127 -2270.402832 1176.236084 80 44 21
-84.542450 -2247.918213 1176.236816 88 31 21
-90.094025 -2253.081055 1176.239502 105 44 27
-82.676605 -2289.510010 1176.250244 78 38 17
-85.578339 -2285.064941 1176.256592 91 52 22
-83.904144 -2285.569336 1176.297363 86 45 20
-93.121277 -2271.742920 1176.299805 188 121 71
-83.906891 -2285.580566 1176.303711 86 45 20
-85.885681 -2259.774658 1176.305176 103 51 27
-66.727722 -2226.017334 1176.306885 95 48 28
-77.404480 -2228.528809 1176.318115 177 83 70
-93.808228 -2266.696289 1176.345825 188 122 72
-90.093323 -2273.172363 1176.369507 101 54 25
-90.138184 -2273.322754 1176.370605 101 54 25
-91.269165 -2270.018799 1176.375732 127 76 40
-95.301849 -2259.641113 1176.380005 208 110 66
-89.083435 -2274.121338 1176.417480 99 53 23
-81.208282 -2234.979004 1176.434692 105 32 24
-94.677002 -2267.720215 1176.439819 184 118 68
-90.275604 -2254.341553 1176.450195 121 61 42
-94.622742 -2262.599609 1176.454834 208 123 77
-93.274078 -2257.211182 1176.455811 168 84 47
-87.657806 -2284.588623 1176.471924 101 60 25
-87.543427 -2282.996582 1176.483154 104 62 25
-88.496490 -2250.148926 1176.489258 116 51 35
-91.763550 -2267.999512 1176.490479 162 108 66
-90.934387 -2258.218262 1176.496704 171 92 58
-82.515747 -2276.284668 1176.503174 78 45 17
-88.591675 -2282.172852 1176.520142 102 59 24
-94.732788 -2258.362061 1176.560913 208 115 74
-89.375092 -2276.515869 1176.563843 98 53 22
-91.699524 -2256.754150 1176.569336 126 67 43
-67.458252 -2226.725586 1176.572021 110 56 36
-85.946259 -2286.559326 1176.574707 78 39 22
-86.424530 -2284.954102 1176.577515 95 54 22
-87.677246 -2283.786865 1176.600464 89 45 23
-85.055420 -2285.990234 1176.607910 86 45 19
-85.004791 -2285.500732 1176.608765 87 46 19
-71.731445 -2225.739746 1176.648315 139 65 45
-71.726776 -2225.741699 1176.650635 139 65 45
-87.162201 -2272.585205 1176.666260 87 46 22
-91.239502 -2370.493408 1176.669556 74 46 24
-91.020386 -2267.327637 1176.682129 94 51 28
-91.885742 -2274.923828 1176.686401 125 62 27
-89.239716 -2281.947998 1176.698120 102 56 23
-75.328308 -2290.320801 1176.701172 79 42 20
-80.145294 -2232.585449 1176.700928 91 27 24
-90.834412 -2272.650146 1176.721558 111 58 27
-92.762451 -2372.191162 1176.737549 83 38 22
-84.116211 -2251.937012 1176.738281 107 45 28
-87.583069 -2282.245850 1176.763550 111 63 29
-92.401855 -2262.587158 1176.774414 207 118 82
-94.646484 -2264.037354 1176.799316 212 133 81
-82.704285 -2242.794434 1176.799438 85 26 20
-74.277740 -2295.827637 1176.810303 74 43 23
-93.611206 -2263.131592 1176.812256 209 123 76
-89.734406 -2273.394043 1176.826416 104 55 25
-88.293549 -2284.108643 1176.845581 108 63 27
-91.764648 -2271.651855 1176.849487 131 71 35
-90.793030 -2272.785645 1176.859619 111 58 27
-83.702332 -2256.061035 1176.860229 97 39 21
-83.369751 -2288.020020 1176.894897 83 39 19
-92.627777 -2270.631836 1176.896484 202 130 81
-92.427063 -2272.390869 1176.897583 151 79 36
-86.148041 -2286.048584 1176.921753 89 48 20
-86.579254 -2284.111328 1176.925903 88 43 22
-90.744995 -2273.064697 1176.925781 108 55 24
-94.577179 -2269.137451 1176.932129 187 114 65
-87.187866 -2284.455566 1176.937256 102 59 25
-91.547119 -2257.668213 1176.941040 154 86 59
-83.583801 -2286.851562 1176.947388 83 40 19
-77.686493 -2230.735107 1176.991455 204 90 78
-85.918427 -2285.373047 1177.002930 92 50 21
-78.934509 -2230.871338 1177.037354 204 86 76
-89.158051 -2281.468262 1177.049438 105 58 25
-62.464569 -2226.284668 1177.069336 77 36 18
-89.959076 -2275.680664 1177.073120 103 53 24
-82.829407 -2287.521240 1177.082764 76 34 18
-90.645905 -2273.625488 1177.151489 111 56 27
-72.391296 -2227.648682 1177.173950 170 77 60
-79.714111 -2289.132812 1177.183105 78 38 18
-89.463257 -2279.647461 1177.217773 101 53 22
-89.467529 -2280.990723 1177.220947 129 75 36
-91.621429 -2272.632568 1177.224976 122 63 31
-91.604614 -2255.943604 1177.227295 123 64 42
-88.077576 -2284.897217 1177.229980 108 62 27
-90.576477 -2273.543945 1177.260620 107 55 26
-70.942657 -2234.925537 1177.286133 82 26 21
-88.738800 -2250.021484 1177.296021 93 33 22
-63.691833 -2229.985596 1177.300293 95 39 32
-80.322266 -2232.339844 1177.318604 154 50 39
-86.980988 -2285.321777 1177.322632 100 56 25
-88.161041 -2283.135010 1177.334473 113 66 29
-87.531738 -2283.521484 1177.335815 96 50 25
-88.122101 -2283.288818 1177.334961 112 66 29
-74.787750 -2311.358643 1177.337402 65 37 16
-86.734192 -2285.010742 1177.340088 99 55 24
-90.471619 -2273.622559 1177.347656 106 54 26
-87.045990 -2285.409424 1177.349854 80 37 20
-85.760071 -2286.072510 1177.354370 89 46 20
-81.890747 -2234.571045 1177.367188 108 32 24
-92.264984 -2268.318848 1177.370117 168 108 66
-84.401093 -2286.168213 1177.374146 85 41 19
-74.000366 -2294.799072 1177.378784 80 44 22
-87.043915 -2282.052734 1177.395874 113 63 26
-86.694489 -2273.135254 1177.401367 90 45 22
-89.031830 -2282.419434 1177.406372 115 66 31
-92.049164 -2257.027100 1177.417114 131 69 45
-84.117889 -2289.979248 1177.425659 84 38 19
-94.489563 -2270.539795 1177.427002 156 82 42
-92.701019 -2272.448975 1177.439453 145 81 48
-84.002625 -2254.598389 1177.441406 120 54 29
-79.190887 -2242.773438 1177.440918 95 32 25
-91.991852 -2256.943359 1177.448608 131 69 45
-87.338837 -2246.248291 1177.461914 88 29 22
-85.795074 -2248.055664 1177.468506 97 35 26
-89.857727 -2276.661865 1177.474121 105 54 24
-94.531342 -2266.842285 1177.477295 197 122 72
-89.856476 -2276.687256 1177.478760 105 54 24
-86.539307 -2245.847412 1177.502686 88 27 20
-77.577820 -2291.845215 1177.521362 80 42 21
-90.905121 -2254.725830 1177.521851 121 57 40
-86.669861 -2250.753418 1177.534302 106 41 30
-92.341888 -2271.935547 1177.544067 158 79 37
-92.971100 -2270.733643 1177.570435 198 126 81
-90.574646 -2275.002686 1177.578979 107 54 26
-92.449005 -2272.087402 1177.596436 144 77 42
-74.670227 -2292.760254 1177.599243 79 41 20
-91.330933 -2273.084717 1177.626953 117 59 29
-89.416046 -2281.227783 1177.640259 111 59 26
-94.556244 -2257.442139 1177.665527 194 101 66
-87.795929 -2283.163086 1177.679321 103 53 25
-85.530701 -2286.605713 1177.695068 87 42 20
-80.130554 -2290.550049 1177.697510 80 38 20
-92.973083 -2275.126953 1177.700439 124 59 28
-87.545227 -2284.548828 1177.707886 107 60 27
-90.368164 -2280.419434 1177.708130 142 83 41
-91.212585 -2273.092285 1177.708252 114 57 29
-84.298035 -2287.221191 1177.711426 85 39 19
-86.744690 -2286.395996 1177.713501 95 51 24
-92.219513 -2261.748535 1177.722778 189 103 66
-91.791718 -2372.739990 1177.724121 83 39 24
-87.343536 -2274.571045 1177.741821 82 41 20
-90.077362 -2278.754395 1177.744141 108 55 25
-65.542023 -2223.397217 1177.745728 42 21 13
-94.177155 -2261.903564 1177.760254 214 118 70
-84.368286 -2289.821289 1177.785156 83 33 18
-94.689331 -2263.122559 1177.785645 219 132 78
-95.440033 -2258.579346 1177.801025 217 119 80
-92.623291 -2273.782227 1177.803467 129 65 34
-92.585449 -2273.492432 1177.809570 131 66 35
-70.580231 -2301.145508 1177.815674 76 41 17
-91.134796 -2273.278564 1177.817993 111 54 26
-94.811890 -2259.199951 1177.817993 216 116 75
-91.789825 -2257.821533 1177.823242 166 92 65
-83.764008 -2282.022949 1177.824219 65 34 19
-90.621307 -2270.365723 1177.841309 92 46 26
-88.729919 -2282.709229 1177.847412 120 70 33
-86.999146 -2269.917969 1177.884033 109 56 26
-94.955719 -2268.231201 1177.900146 211 129 77
-77.161957 -2288.819580 1177.925537 78 36 17
-92.850952 -2274.948486 1177.942261 127 63 34
-94.894684 -2264.577637 1177.943604 222 137 82
-90.494354 -2276.154541 1177.969849 111 55 26
-90.496613 -2276.158936 1177.971680 111 55 26
-75.490234 -2290.472900 1177.981812 84 42 21
-83.853638 -2254.369873 1177.988403 121 53 29
-92.714081 -2252.579834 1178.009033 102 43 32
-88.457489 -2285.282715 1178.011475 113 63 30
-92.691956 -2252.550537 1178.011353 101 42 31
-80.713715 -2234.120850 1178.037598 109 31 24
-92.105286 -2256.207764 1178.043945 125 65 43
-75.348541 -2292.072998 1178.067139 84 43 23
-95.010651 -2264.397461 1178.088013 222 137 82
-87.345276 -2285.593506 1178.093018 104 56 26
-86.501343 -2286.943604 1178.098755 93 48 24
-70.407501 -2237.661133 1178.105835 91 29 24
-91.777466 -2256.189941 1178.122070 126 62 41
-85.128876 -2286.593262 1178.132324 86 40 20
-89.434967 -2366.937012 1178.134644 67 41 22
-92.218445 -2273.616943 1178.135620 131 65 35
-72.546600 -2295.707520 1178.160522 72 39 21
-80.630981 -2236.192871 1178.166016 105 31 23
-88.872986 -2284.447510 1178.180664 118 67 32
-87.591125 -2247.972412 1178.190796 92 30 21
-88.457153 -2282.524658 1178.197632 121 67 34
-90.949524 -2274.102783 1178.198242 112 55 27
-89.807037 -2279.911377 1178.201294 111 56 25
-80.757507 -2232.286865 1178.222290 165 54 44
-87.813171 -2284.352539 1178.231689 86 41 22
-63.951355 -2228.666504 1178.242920 105 49 42
-74.148926 -2285.875244 1178.244995 64 32 18
-82.651123 -2235.737305 1178.257324 105 31 24
-89.655609 -2283.706299 1178.283813 126 72 36
-85.992493 -2277.851074 1178.283691 137 76 35
-95.100586 -2269.487793 1178.286011 205 121 73
-85.926147 -2257.498047 1178.287354 115 50 28
-90.619049 -2278.056152 1178.297852 118 59 30
-88.596344 -2253.886719 1178.299805 114 49 34
-84.869110 -2287.988281 1178.308228 85 38 20
-92.052277 -2261.136719 1178.308350 218 117 80
-79.933289 -2292.217529 1178.309570 82 38 21
-85.518524 -2238.261963 1178.317871 82 22 19
-92.670105 -2272.467041 1178.322754 153 75 39
-63.525177 -2226.442383 1178.359985 108 54 29
-91.466980 -2255.095215 1178.374146 123 65 47
-91.949066 -2257.135254 1178.379395 141 70 48
-95.066986 -2269.533447 1178.386108 205 121 74
-75.386322 -2293.531982 1178.393555 95 49 27
-64.889648 -2228.893311 1178.404419 107 49 43
-95.297791 -2260.240234 1178.407104 221 117 76
-92.006714 -2257.075439 1178.407349 138 68 46
-92.779510 -2276.357666 1178.425049 146 78 49
-85.962738 -2248.797119 1178.425781 97 34 23
-91.177948 -2279.333008 1178.432373 158 88 47
-75.879456 -2240.960693 1178.436523 91 28 23
-91.026825 -2275.180908 1178.455688 115 56 28
-91.892975 -2265.111328 1178.469360 112 56 32
-85.798767 -2277.934326 1178.474487 148 86 43
-90.724091 -2274.137939 1178.474854 115 56 29
-69.615692 -2299.069092 1178.487427 66 33 15
-87.916901 -2284.956055 1178.488892 112 61 29
-91.160187 -2276.326172 1178.495361 117 57 29
-92.688721 -2272.513672 1178.536255 150 76 43
-86.073639 -2286.775391 1178.538696 89 43 22
-87.217651 -2286.526123 1178.542969 102 54 27
-89.840546 -2281.411133 1178.553711 125 68 35
-82.079315 -2289.141113 1178.558105 76 33 18
-86.477722 -2248.495117 1178.566650 93 32 22
-88.674774 -2282.267334 1178.567017 129 72 37
-86.021271 -2248.219238 1178.568970 97 33 23
-91.394623 -2259.575439 1178.598267 217 122 87
-64.571869 -2290.166260 1178.600342 67 38 20
-92.330658 -2255.619873 1178.601562 108 51 34
-93.777802 -2273.628174 1178.634521 132 61 32
-88.380035 -2285.393799 1178.635498 83 38 23
-85.686493 -2278.870361 1178.637207 162 99 49
-91.326111 -2255.003174 1178.662476 112 48 32
-91.591644 -2273.677979 1178.674561 117 56 29
-85.191742 -2287.393799 1178.675415 80 34 19
-85.177277 -2287.400879 1178.680908 80 34 19
-89.513977 -2284.632568 1178.693115 125 70 35
-85.907745 -2288.486572 1178.697510 84 37 20
-87.134277 -2249.400635 1178.707520 87 28 21
-90.809875 -2373.059082 1178.726807 81 37 23
-74.292694 -2311.192871 1178.734863 68 36 17
-80.628418 -2289.817627 1178.734497 76 33 18
-81.812744 -2236.173584 1178.737793 107 33 24
-92.061401 -2250.241455 1178.741211 96 48 32
-90.386505 -2278.939209 1178.742065 118 58 29
-85.833557 -2287.412354 1178.743164 86 38 20
-89.396942 -2284.089600 1178.744995 126 72 36
-86.936951 -2277.882812 1178.756470 140 73 33
-93.041534 -2277.591309 1178.760742 149 71 39
-91.538849 -2273.864014 1178.770264 120 56 29
-96.343414 -2264.689697 1178.776855 226 136 83
-91.646027 -2257.887695 1178.790649 185 102 76
-93.140381 -2264.192871 1178.791016 185 108 70
-95.067169 -2266.471680 1178.803223 199 116 67
-86.908112 -2276.760254 1178.804199 94 46 21
-87.604553 -2271.844482 1178.806152 95 45 24
-88.746338 -2285.561523 1178.815430 118 65 33
-94.213989 -2256.440674 1178.830933 148 59 33
-86.595245 -2277.370605 1178.835938 136 70 30
-94.374603 -2256.232666 1178.845337 147 58 34
-86.740509 -2286.853760 1178.854004 95 47 24
-94.812256 -2262.415527 1178.872314 223 128 78
-90.028564 -2282.906250 1178.882935 133 76 41
-94.790527 -2271.004150 1178.885132 184 98 62
-92.492767 -2256.448486 1178.885864 126 62 41
-84.127625 -2283.445068 1178.887573 122 69 33
-88.395233 -2285.437988 1178.894531 83 38 23
-89.852875 -2282.865234 1178.894043 133 76 41
-91.033752 -2277.310547 1178.901855 127 64 35
-95.301971 -2263.662109 1178.906616 223 134 80
-92.534180 -2273.452148 1178.910889 141 70 40
-86.727509 -2286.457031 1178.917480 98 49 25
-92.767883 -2268.673828 1178.925903 225 141 89
-92.233551 -2256.690430 1178.934204 127 55 37
-87.792877 -2286.073975 1178.948242 108 56 28
-94.646545 -2271.009033 1178.950073 186 99 63
-96.747864 -2260.488770 1178.950439 228 124 84
-91.961609 -2373.112793 1178.973511 90 37 27
-92.840210 -2258.067139 1178.974365 155 81 57
-93.036713 -2271.354248 1178.977661 194 116 79
-86.785706 -2286.384766 1178.990112 99 50 25
-95.911804 -2268.105469 1178.992432 218 127 76
-69.872345 -2297.542236 1178.995850 74 39 19
-84.235229 -2235.839600 1179.011719 103 29 23
-94.745941 -2271.017578 1179.036499 188 101 64
-95.322998 -2257.464355 1179.055420 216 117 86
-95.670013 -2267.207031 1179.083984 199 115 66
-89.300293 -2281.572754 1179.089844 148 83 44
-88.674652 -2283.316895 1179.093262 109 55 29
-84.679779 -2252.719727 1179.093994 111 43 27
-89.810394 -2256.427490 1179.105225 118 51 33
-96.136780 -2258.652588 1179.109253 228 123 89
-85.522827 -2288.467773 1179.119751 85 37 20
-80.001282 -2230.933594 1179.122070 210 86 77
-90.261200 -2279.887939 1179.136597 123 61 31
-90.930847 -2241.924072 1179.143799 97 26 21
-64.971954 -2230.513916 1179.149780 101 37 32
-91.409546 -2274.965332 1179.155273 123 60 33
-84.103729 -2252.659668 1179.172363 115 46 29
-87.286072 -2272.827148 1179.177612 100 47 25
-90.140228 -2280.137207 1179.185669 126 63 33
-86.635773 -2287.855957 1179.187256 89 40 21
-86.752380 -2287.869141 1179.189575 89 40 21
-91.291656 -2274.531006 1179.193115 122 60 33
-76.781342 -2289.505371 1179.225586 82 35 18
-89.298676 -2285.269043 1179.227539 125 69 35
-69.919006 -2225.013916 1179.234741 146 63 48
-79.564362 -2234.148682 1179.247070 124 35 27
-93.490631 -2275.114258 1179.256104 174 96 62
-92.295929 -2257.314941 1179.266846 149 72 50
-73.050781 -2228.531250 1179.277466 171 67 56
-93.406219 -2275.295898 1179.278564 176 97 63
-87.586182 -2287.147949 1179.281006 102 51 26
-89.904510 -2283.898193 1179.286987 134 76 41
-91.970154 -2255.512939 1179.294678 129 67 49
-87.649994 -2287.152100 1179.299561 103 52 26
-86.087830 -2277.949219 1179.299805 170 102 56
-78.964417 -2229.517822 1179.309082 221 93 83
-92.235748 -2260.019775 1179.323975 228 125 93
-93.281738 -2267.418945 1179.329590 222 135 90
-65.088715 -2226.466553 1179.329102 132 64 40
-81.396820 -2226.565674 1179.342041 110 32 30
-90.810822 -2278.148926 1179.345093 130 65 36
-73.602356 -2312.228760 1179.346924 68 36 17
-86.246307 -2278.216309 1179.370972 173 105 57
-88.322968 -2285.555420 1179.372437 116 61 31
-94.645416 -2272.460938 1179.385010 161 78 46
-92.813995 -2272.197266 1179.389404 166 89 57
-81.121246 -2234.418213 1179.421753 112 34 27
48.387634 -2347.056152 1179.428711 118 73 41
-86.429230 -2288.692139 1179.461182 87 38 21
-90.312836 -2282.178223 1179.474609 140 78 45
-92.139771 -2274.257812 1179.481201 132 61 33
-76.169952 -2291.205078 1179.484863 85 38 21
-72.911224 -2308.296143 1179.491211 70 35 17
-92.079559 -2274.158691 1179.497559 132 61 33
-70.023468 -2296.566650 1179.506958 71 33 17
-91.449646 -2276.562500 1179.507446 134 68 40
-84.057373 -2282.844971 1179.516357 134 77 39
-90.155151 -2280.906494 1179.523193 138 74 43
-92.052582 -2258.287354 1179.538330 183 95 69
-77.381561 -2293.110596 1179.543457 82 38 22
-78.111786 -2284.513184 1179.543091 65 30 18
-91.688477 -2267.952393 1179.543945 108 50 30
-93.253906 -2263.138428 1179.547974 206 115 76
-92.283752 -2255.630371 1179.569092 123 58 41
-74.970154 -2229.644043 1179.575439 209 82 74
-94.475830 -2272.398682 1179.576660 162 76 42
-89.184387 -2282.989502 1179.582764 116 57 29
-93.100403 -2273.635742 1179.592163 155 77 48
-73.544037 -2305.384033 1179.595459 73 36 18
-92.854370 -2257.229980 1179.595459 142 71 48
-86.250244 -2287.834961 1179.610596 88 39 21
-85.092163 -2279.560303 1179.624512 77 38 21
-88.803345 -2284.459229 1179.626099 91 42 25
-94.557495 -2272.427490 1179.642334 163 77 43
-87.609467 -2288.302490 1179.655151 93 42 22
-95.550171 -2269.860840 1179.673828 218 123 79
-92.593689 -2261.492920 1179.676270 204 112 77
-79.024780 -2289.954834 1179.686646 82 33 19
-79.528717 -2291.527832 1179.695312 80 33 18
-87.096191 -2277.723145 1179.698853 172 99 57
-61.374451 -2225.543701 1179.700195 81 37 20
-89.782166 -2284.936768 1179.702148 131 72 38
-84.312775 -2281.193604 1179.717041 146 85 43
-89.114838 -2286.243652 1179.719971 120 62 33
-90.702606 -2279.161377 1179.734375 127 60 33
-91.926147 -2274.486084 1179.735352 136 61 31
-88.098724 -2286.626465 1179.736084 109 54 28
-87.228821 -2287.053955 1179.748657 96 45 23
-89.784851 -2284.948975 1179.753174 132 73 39
-88.476196 -2287.183594 1179.764160 110 54 28
-88.986633 -2284.406738 1179.826172 91 42 25
-95.422180 -2269.799561 1179.832031 219 124 79
-92.503204 -2256.551514 1179.834961 133 60 41
-69.246735 -2298.981689 1179.836304 74 34 16
-89.965088 -2239.687256 1179.855835 97 25 21
-94.572052 -2273.871826 1179.863281 183 99 65
-74.882355 -2292.676025 1179.867188 87 41 26
-90.185699 -2283.124512 1179.868896 141 80 47
-86.091766 -2273.524170 1179.872803 142 71 34
-86.070831 -2288.724609 1179.883423 87 37 20
-89.836578 -2280.484863 1179.886475 171 96 50
-93.238098 -2248.425293 1179.893677 106 36 24
-92.222565 -2256.529541 1179.906250 139 63 44
-95.987610 -2264.014404 1179.908569 230 136 86
-91.322510 -2277.544922 1179.913818 140 71 43
-78.089996 -2240.919678 1179.914551 98 31 27
-91.009583 -2373.680908 1179.916748 84 36 24
-87.313171 -2289.032227 1179.917236 89 39 21
-89.675201 -2282.295410 1179.932617 139 72 40
-91.803558 -2274.583496 1179.937012 141 65 34
-88.479767 -2238.358154 1179.940186 105 28 23
-93.216553 -2268.351318 1179.943115 226 135 89
-95.699371 -2262.647217 1179.948730 230 135 85
-91.346863 -2246.723877 1179.953491 95 30 23
-92.281525 -2279.827637 1179.967529 179 98 59
-87.739807 -2273.869141 1179.969849 160 83 49
-80.058685 -2290.824219 1179.989502 81 33 19
-87.082306 -2278.985107 1180.006592 190 118 68
-73.682526 -2295.334717 1180.019165 81 39 23
-86.292206 -2250.817871 1180.029297 103 37 25
-86.509216 -2251.082520 1180.040283 103 37 25
-69.782379 -2297.494141 1180.053101 76 36 19
-91.961487 -2276.172852 1180.081177 144 77 50
-74.147186 -2311.246826 1180.081909 72 35 18
-87.858765 -2245.939453 1180.087158 95 29 23
-93.141052 -2249.681641 1180.094116 104 36 23
-91.098145 -2193.139648 1180.097656 104 46 32
-88.277771 -2277.702148 1180.102051 161 81 43
-90.577454 -2280.106934 1180.128784 136 70 40
-91.226196 -2253.054199 1180.138184 112 46 33
-93.481384 -2272.729248 1180.145874 185 104 74
-95.162720 -2256.529785 1180.146240 172 77 53
-85.669647 -2235.968018 1180.155884 86 22 20
-89.562622 -2285.674805 1180.178711 128 67 36
-90.185638 -2281.776611 1180.181396 154 83 47
-88.153381 -2287.702637 1180.187744 100 46 23
-65.086792 -2229.064453 1180.192383 116 49 44
-88.583191 -2286.001221 1180.195557 116 58 31
-93.247223 -2264.372070 1180.197388 192 110 72
-67.510498 -2226.117676 1180.197021 140 60 47
-92.318237 -2257.404541 1180.205688 173 91 68
-95.975861 -2257.732666 1180.207397 221 118 88
-76.497162 -2292.660156 1180.211548 89 41 26
-95.345123 -2271.410889 1180.219482 209 112 76
-72.655121 -2306.454102 1180.244385 74 35 18
-92.644440 -2262.945557 1180.251953 125 58 33
-86.387054 -2248.883789 1180.256226 91 28 22
-87.180847 -2274.988770 1180.263428 100 48 28
-85.954071 -2287.803955 1180.265747 87 43 30
46.346130 -2347.182373 1180.267090 65 31 15
-85.942261 -2287.809082 1180.270142 84 38 25
-85.889618 -2289.441406 1180.272339 97 42 24
-93.813416 -2274.489258 1180.279541 176 94 66
-82.612610 -2234.760010 1180.294800 111 32 26
-90.133667 -2284.168701 1180.296143 138 76 43
-78.440613 -2293.093262 1180.298096 85 37 23
-80.617249 -2288.148438 1180.299927 95 40 24
-85.019958 -2255.159424 1180.304321 131 56 33
-91.144958 -2278.430176 1180.332031 132 61 34
-75.271820 -2295.325195 1180.335815 85 40 24
-94.212006 -2248.044678 1180.338867 109 37 26
-86.952118 -2289.056885 1180.340210 89 39 22
-96.820312 -2258.883301 1180.350830 235 128 95
-80.449341 -2234.319580 1180.361084 123 36 28
-89.997101 -2283.954346 1180.368286 138 76 43
-92.401398 -2244.177246 1180.367920 103 30 25
-69.807281 -2235.311523 1180.373779 88 23 21
-91.881256 -2256.194824 1180.379028 136 57 38
-96.869263 -2268.262451 1180.380615 226 130 80
-94.969513 -2271.149170 1180.411133 215 116 76
-88.031219 -2289.217041 1180.416626 93 41 22
-77.962280 -2290.003906 1180.422363 85 36 22
-74.371918 -2287.243164 1180.425293 71 33 20
-90.507782 -2241.049561 1180.426025 100 28 24
-96.403351 -2261.230713 1180.443359 234 131 90
-93.615906 -2267.498779 1180.448364 229 138 93
-92.499878 -2274.595947 1180.449463 154 73 43
-79.930481 -2289.730469 1180.453979 79 29 18
-82.275970 -2243.149170 1180.454834 105 35 31
-90.616760 -2282.403320 1180.461060 145 80 48
-90.616058 -2282.401123 1180.462402 145 80 48
-82.390106 -2291.548340 1180.471069 86 35 21
-63.600861 -2227.188477 1180.490479 123 56 37
-94.237732 -2275.488770 1180.494141 184 92 60
-95.046448 -2271.266113 1180.509521 216 117 80
-92.938690 -2276.439697 1180.513184 184 99 64
-91.736511 -2276.797607 1180.519043 149 79 52
-90.453705 -2281.059570 1180.520752 146 79 48
-70.731079 -2302.675537 1180.523682 75 36 19
-89.534637 -2283.388672 1180.524902 106 48 26
-94.161530 -2275.315430 1180.550293 191 99 66
-70.151367 -2296.687012 1180.555176 77 35 19
-94.666351 -2266.281494 1180.580933 207 121 72
-80.133789 -2291.835449 1180.602661 83 33 21
-84.045471 -2279.303955 1180.606201 161 93 49
-91.208344 -2254.161621 1180.615479 129 58 43
-87.790680 -2278.132080 1180.616455 199 118 78
-93.668335 -2275.418213 1180.646606 175 87 57
-88.619202 -2287.334717 1180.655029 106 49 26
-92.476227 -2255.905273 1180.659912 136 64 47
-89.723419 -2283.308105 1180.713623 107 48 26
-89.993561 -2285.149902 1180.718018 135 71 39
-91.018311 -2279.378174 1180.726440 135 65 37
-73.434204 -2227.693115 1180.735352 177 62 56
-80.793579 -2289.423096 1180.741943 83 33 20
-89.334869 -2286.083252 1180.745117 123 61 34
-89.287598 -2271.782959 1180.788452 100 44 27
-91.079529 -2284.917480 1180.792969 90 41 28
-90.746521 -2284.375488 1180.796631 142 77 45
-95.505829 -2272.334717 1180.827637 209 108 74
-81.290894 -2231.677246 1180.833984 195 74 62
-87.787262 -2249.143066 1180.835205 98 33 25
-92.772583 -2278.688477 1180.839722 182 94 60
-87.752716 -2270.486572 1180.842407 130 62 38
-83.747650 -2282.019775 1180.873169 129 66 29
-90.483612 -2373.676514 1180.876587 76 42 27
-84.227173 -2281.093018 1180.876221 158 92 48
-87.626221 -2289.094482 1180.880371 92 40 23
-87.303864 -2249.292969 1180.901855 98 33 25
-92.119598 -2259.695557 1180.908813 232 125 93
-61.106964 -2224.373047 1180.911133 81 40 26
-86.783722 -2249.589111 1180.915771 100 33 25
-95.156708 -2267.405029 1180.921509 208 120 74
-68.569702 -2300.696045 1180.924072 75 35 20
-91.599182 -2277.737793 1180.927734 145 72 46
-93.316528 -2246.566650 1180.936157 103 32 24
-90.104462 -2244.112061 1180.945923 101 28 23
-83.602783 -2284.661621 1180.958496 100 45 22
-93.190887 -2276.493408 1180.960083 203 111 78
-91.181122 -2251.757812 1180.965576 124 57 43
-88.498383 -2288.506592 1181.000732 98 43 24
-84.959961 -2237.511475 1181.000122 99 26 24
-91.519135 -2373.468262 1181.033081 89 36 26
-75.419373 -2293.109863 1181.035645 90 40 26
-96.249695 -2263.262207 1181.038574 233 137 89
-79.989380 -2290.725830 1181.045898 83 32 21
-92.393402 -2276.903564 1181.058105 170 91 63
-93.093109 -2261.856445 1181.058838 222 127 90
-95.962677 -2270.168701 1181.086060 227 122 82
-86.399811 -2227.108643 1181.088379 109 32 29
-72.699829 -2290.414062 1181.090820 76 36 25
-94.181946 -2276.606689 1181.097656 161 67 39
-66.394012 -2230.952393 1181.112549 105 32 29
-90.913116 -2280.400391 1181.114746 147 77 48
-68.686401 -2226.074951 1181.126343 183 71 58
-89.493317 -2284.564453 1181.129883 93 42 28
-94.601776 -2247.667236 1181.131714 110 38 27
-89.095215 -2286.977783 1181.136841 114 53 29
-65.794220 -2230.922607 1181.136597 101 31 29
-68.653809 -2226.087402 1181.136597 183 71 58
-89.002441 -2286.670410 1181.149780 114 53 29
-86.868073 -2258.052979 1181.151978 126 54 33
-91.237122 -2240.518799 1181.155151 101 28 25
-80.124451 -2288.619385 1181.156982 96 41 26
-76.693726 -2229.789551 1181.157715 220 85 79
-89.717621 -2285.677002 1181.160645 128 64 35
-68.269592 -2297.886719 1181.162598 73 32 17
-89.901001 -2286.167236 1181.164062 127 63 35
-73.658417 -2295.774658 1181.172607 88 40 25
-90.661835 -2281.627686 1181.175049 160 82 47
-88.306488 -2238.737793 1181.188477 88 22 21
-87.296143 -2278.231934 1181.205078 207 126 83
-93.383911 -2246.377197 1181.208008 103 32 24
-92.750916 -2373.386719 1181.215820 86 34 24
-90.415497 -2285.357666 1181.226929 86 42 32
-93.527222 -2251.545654 1181.237183 112 40 28
-76.832916 -2292.915283 1181.239990 87 37 24
-94.798157 -2255.712158 1181.244141 142 55 31
49.613831 -2346.105225 1181.249268 55 31 16
-93.705200 -2269.302979 1181.266846 208 120 83
-85.875153 -2277.225342 1181.281494 99 46 29
-77.526489 -2290.999756 1181.282837 92 38 26
-83.499756 -2235.250488 1181.297852 113 34 28
-84.947479 -2238.362305 1181.302490 101 26 23
-90.330811 -2284.349854 1181.313965 140 74 43
-89.177032 -2275.097168 1181.320312 195 102 65
-92.540283 -2265.734375 1181.322754 122 55 32
49.354553 -2346.059082 1181.325195 54 31 15
-91.462189 -2278.649658 1181.325928 141 65 39
-90.752563 -2285.433350 1181.328125 138 72 42
-92.438324 -2258.543701 1181.330811 197 102 78
-96.787079 -2270.794922 1181.333252 227 119 84
-88.403259 -2277.115967 1181.338013 188 101 64
-95.738434 -2256.675781 1181.350708 198 97 72
-80.227295 -2289.929199 1181.355469 86 34 23
-87.762024 -2240.651855 1181.370850 91 24 21
-79.059998 -2295.068848 1181.375488 89 37 25
-90.226593 -2284.095947 1181.378174 141 74 43
-78.809174 -2290.513916 1181.391846 88 36 24
-73.860992 -2311.167480 1181.392578 77 35 20
-91.088501 -2283.588135 1181.393433 147 79 48
-97.392853 -2261.521729 1181.398804 237 136 92
-75.448639 -2295.554932 1181.406616 87 38 25
-91.897186 -2281.380615 1181.407227 147 76 48
-91.051178 -2282.326904 1181.416016 149 79 49
-88.815582 -2238.854004 1181.436401 101 26 24
-88.914307 -2288.301758 1181.444092 100 43 24
-92.266785 -2277.932373 1181.446655 152 75 51
-91.768860 -2281.119141 1181.449585 180 94 61
-96.387695 -2265.558350 1181.449829 209 121 77
-90.550171 -2282.239746 1181.456177 137 65 36
-95.216736 -2270.291260 1181.468140 204 109 73
-97.629211 -2263.224365 1181.468628 232 139 90
-85.531525 -2253.466064 1181.480713 125 50 32
-92.507263 -2257.184814 1181.494995 163 77 58
-77.334351 -2292.019043 1181.508545 88 35 23
-90.230591 -2282.570068 1181.515381 126 57 31
-93.828583 -2274.724609 1181.518066 207 111 82
-80.636108 -2291.507568 1181.524658 84 33 22
-88.875031 -2287.803711 1181.538574 103 44 24
-94.095734 -2275.686035 1181.541748 210 112 82
-81.453461 -2231.263672 1181.546265 214 87 76
-88.741150 -2287.419678 1181.553467 104 45 24
-91.873749 -2254.553711 1181.563721 128 55 40
-89.591461 -2286.865723 1181.573608 120 55 31
-88.969330 -2229.528320 1181.583618 98 26 24
-89.153534 -2276.335205 1181.601929 166 72 37
-82.221527 -2291.304443 1181.617188 87 35 23
-91.626587 -2280.660889 1181.624756 148 76 49
-91.306244 -2248.455078 1181.627930 101 41 33
-94.573914 -2274.417236 1181.632446 215 111 78
-83.611420 -2283.454346 1181.641602 106 49 23
-81.205353 -2290.426025 1181.646118 87 34 23
-90.434601 -2286.223145 1181.656006 132 65 37
-90.321075 -2240.843506 1181.662598 101 28 24
-88.483398 -2278.614746 1181.663452 208 122 81
-78.662811 -2291.363525 1181.675293 87 35 23
-92.156372 -2259.702881 1181.675415 205 108 79
-89.587219 -2286.666992 1181.690674 121 55 31
-88.231934 -2244.418213 1181.758179 95 27 24
-80.869080 -2282.066895 1181.770752 72 32 21
-76.347992 -2294.975342 1181.782593 88 37 25
-70.330322 -2302.474609 1181.813232 76 33 18
-88.798431 -2289.243652 1181.822510 97 41 24
-95.291656 -2272.166016 1181.823730 199 100 72
-90.932404 -2284.527100 1181.824097 145 76 46
-90.298279 -2285.617920 1181.828247 133 66 38
-92.186920 -2278.953369 1181.833862 142 64 40
-94.786591 -2257.209961 1181.833984 190 92 68
-93.151855 -2247.414795 1181.852295 105 34 26
-83.109161 -2285.312012 1181.857422 99 41 22
-90.877380 -2284.343506 1181.872803 143 75 46
-91.681305 -2282.306641 1181.883301 152 81 52
-81.698242 -2232.568604 1181.895508 151 44 36
-95.098022 -2275.207031 1181.903931 195 89 61
-90.292786 -2285.567871 1181.920288 135 66 39
-91.421478 -2280.416016 1181.932373 187 97 59
-88.692078 -2288.699707 1181.940552 106 43 24
-68.470917 -2303.570557 1181.966797 76 35 19
-90.831604 -2284.198242 1181.975342 146 77 47
-89.309357 -2287.705811 1181.976196 106 45 24
-93.906525 -2253.535156 1181.978271 116 42 26
-90.854218 -2284.178467 1181.985107 146 77 47
-90.970245 -2373.413086 1181.990601 88 36 26
-81.768860 -2291.658203 1181.992188 85 33 22
-68.181091 -2224.586426 1182.000000 156 62 50
-92.718140 -2277.272217 1182.009399 156 79 56
-75.990845 -2293.457275 1182.021362 92 39 27
-84.911560 -2236.590332 1182.022095 106 29 26
-61.839752 -2225.643799 1182.030029 113 54 38
-89.290039 -2274.189209 1182.032227 97 41 26
-75.309601 -2289.768311 1182.045776 76 33 24
-84.284821 -2281.234619 1182.053955 143 70 34
-80.568176 -2293.182129 1182.072876 87 34 23
-88.053162 -2246.051025 1182.101196 105 38 33
-90.114258 -2286.679932 1182.136475 127 58 33
-92.996063 -2259.878662 1182.157227 211 111 84
-72.812561 -2308.626465 1182.170898 81 36 22
-80.749512 -2291.147949 1182.171021 85 33 23
-72.957428 -2312.391846 1182.173340 78 36 21
-82.576080 -2233.648193 1182.203369 125 35 29
-66.027069 -2229.108154 1182.212891 101 34 33
-88.875977 -2277.440674 1182.215576 207 118 81
-89.510406 -2238.847412 1182.218994 102 28 25
-62.381866 -2226.068359 1182.221191 137 67 46
-92.047791 -2279.860840 1182.228760 146 69 45
-90.533997 -2284.170166 1182.229980 95 43 29
-85.390839 -2235.089844 1182.235718 110 30 27
-89.815033 -2283.846191 1182.239258 98 42 27
-68.265472 -2300.482178 1182.250244 77 33 20
-77.098877 -2293.033447 1182.267212 90 36 25
-97.050964 -2269.424316 1182.280029 208 111 77
-90.795197 -2285.616943 1182.287109 138 69 41
-65.271240 -2225.618164 1182.311523 89 43 36
-91.636902 -2257.382080 1182.320068 132 55 36
-92.111542 -2253.544189 1182.323242 127 51 37
-91.537567 -2283.496094 1182.337036 149 79 51
-90.531647 -2244.212158 1182.352295 104 31 27
-87.772766 -2251.864014 1182.358521 117 44 31
-90.786224 -2285.556885 1182.372681 144 72 43
-92.211823 -2282.467529 1182.378052 154 80 53
-90.478363 -2247.470947 1182.377930 101 33 26
-75.238098 -2230.184814 1182.386841 225 83 78
-92.665619 -2278.278564 1182.396973 154 72 51
-90.765106 -2285.391846 1182.398926 140 70 42
-92.657043 -2278.251465 1182.399780 154 72 51
-92.899292 -2268.227295 1182.402466 120 52 33
-92.556030 -2278.166260 1182.409668 153 72 50
-89.756378 -2275.211182 1182.409546 200 99 66
-92.103180 -2282.219482 1182.415894 156 81 54
-91.273224 -2283.758057 1182.416748 148 78 50
-92.476288 -2268.241943 1182.416992 121 52 33
-90.989929 -2239.953857 1182.441162 103 29 25
-85.114319 -2237.848633 1182.441406 102 27 25
-88.779327 -2278.927979 1182.460205 211 123 83
-68.456116 -2298.054443 1182.463867 83 35 20
-95.488617 -2268.607178 1182.465210 232 131 86
-93.938660 -2274.254883 1182.473145 218 116 89
-87.389557 -2243.782471 1182.477539 97 28 24
-94.648285 -2276.627441 1182.480347 179 77 52
