ply
format ascii 1.0
element vertex 1065
property float x
property float y
property float z
property uchar red
property uchar green
property uchar blue
end_header
100.334839 -1147.842041 1201.321411 155 57 40
101.965149 -1147.907715 1206.345093 157 62 39
121.990540 -1149.147949 1168.123779 75 43 19
122.368225 -1149.242310 1168.172241 74 43 19
100.649597 -1151.185547 1186.329346 126 43 29
102.195984 -1151.033081 1193.809814 152 52 40
101.474182 -1152.359863 1196.738770 147 53 37
104.605530 -1150.857788 1199.898193 141 51 35
107.503052 -1151.626099 1202.206421 143 56 38
110.373779 -1151.374023 1204.749878 141 55 37
110.588928 -1150.225220 1209.511353 155 70 46
118.152710 -1155.603516 1202.569824 106 40 28
116.423401 -1157.981812 1178.989258 54 33 15
113.569092 -1159.067383 1181.023071 62 39 21
111.028625 -1157.458252 1181.890625 73 39 19
112.695984 -1158.722534 1181.192627 71 40 21
271.132568 -1264.674072 780.995300 146 81 42
252.250122 -1283.736694 776.198792 127 69 33
-134.035400 -1338.287109 1209.163940 131 79 48
-134.706482 -1338.478638 1211.192017 107 69 38
-141.390594 -1343.496338 1219.585571 149 90 57
240.945984 -1387.443726 874.867126 139 67 32
186.692200 -1393.913574 894.425720 176 93 54
185.121399 -1393.240845 897.895264 183 103 59
182.006165 -1392.807129 902.437622 188 107 65
179.034424 -1392.371216 906.945740 186 104 67
-163.749451 -1391.605103 1240.720093 129 79 45
190.326965 -1394.383301 897.105713 165 87 49
194.173706 -1450.228882 992.615845 160 106 65
206.894836 -1453.931274 1001.369995 171 103 63
198.514099 -1457.095825 992.979492 160 100 59
197.614136 -1455.315063 994.817871 160 99 58
196.399414 -1456.402100 991.983154 159 104 64
200.410156 -1457.857300 995.813293 164 102 61
211.954895 -1458.354614 1002.679688 174 103 65
217.626831 -1460.937012 1016.880737 177 98 62
196.381592 -1463.510742 990.450256 140 94 55
205.377441 -1463.710815 999.016602 178 105 67
238.845520 -1465.032593 1020.271057 164 92 59
215.829346 -1469.015747 1002.590881 182 105 68
247.906006 -1468.660034 1017.160767 176 102 66
199.761536 -1473.709839 995.730286 151 94 49
195.907104 -1477.391968 999.910156 162 99 55
213.140381 -1482.173096 999.718262 149 92 45
214.984985 -1479.737183 1001.612793 167 104 58
213.700806 -1547.942139 1047.777832 183 99 71
202.997681 -1559.911499 1049.057495 178 94 60
182.766663 -1560.136230 1041.841919 190 98 69
190.138550 -1561.850220 1043.755859 209 117 80
200.499023 -1575.773315 1047.658081 188 111 69
184.335876 -1578.066040 1043.885742 186 108 65
183.813843 -1581.138550 1041.982544 180 104 62
178.078186 -1671.804199 969.899475 169 111 62
183.458679 -1670.493164 973.815674 184 120 75
211.465759 -1672.694946 984.690796 172 95 60
217.881287 -1675.647217 989.099365 164 81 52
221.034790 -1674.084229 990.955200 157 75 52
222.001038 -1675.023071 994.560425 132 73 52
182.774475 -1675.427124 969.708130 168 104 59
189.734619 -1675.741821 972.576416 177 111 69
209.409302 -1676.087036 982.958801 183 102 66
209.118774 -1678.150269 980.918091 192 108 72
210.147095 -1678.863892 981.028564 185 99 63
213.893860 -1678.990112 984.703247 168 84 49
217.498352 -1679.072388 986.810974 169 85 50
222.991455 -1677.958130 994.044678 123 71 47
209.552063 -1680.135742 947.511780 124 73 31
206.622009 -1679.788696 950.994629 129 76 31
199.393677 -1678.880859 975.724731 185 110 70
203.179260 -1679.544189 978.559448 189 111 73
217.013550 -1682.820068 986.863586 145 66 33
217.293335 -1682.880859 986.779053 145 66 33
213.243591 -1684.223755 945.919983 120 70 30
189.914368 -1682.034790 965.729980 147 82 36
201.981506 -1686.194458 967.567627 160 90 43
202.004700 -1686.287964 973.072266 168 90 49
200.270081 -1691.621826 965.221375 133 63 29
197.776550 -1689.640137 968.804993 148 75 34
205.304932 -1690.383789 970.858765 152 74 36
211.745483 -1692.280151 976.716187 152 69 33
218.385620 -1697.448364 954.548950 127 64 31
201.533386 -1694.377930 959.228943 124 59 28
188.217896 -1691.902344 965.101501 133 65 29
202.213013 -1694.995239 961.050903 125 59 28
202.213013 -1694.995239 961.050903 125 59 28
191.432373 -1693.242310 967.489197 138 66 31
221.655029 -1699.927612 947.239380 103 57 23
221.125916 -1699.798218 949.987671 111 58 26
217.377686 -1699.612427 958.957275 125 59 30
210.062744 -1697.340576 958.866150 123 57 28
212.104736 -1697.722412 957.267334 119 55 27
214.382935 -1697.380371 959.901855 133 62 31
214.382935 -1697.380371 959.901855 133 62 31
222.831726 -1702.269409 945.839600 94 52 21
222.082947 -1704.466064 947.382385 89 48 21
222.014160 -1704.291504 950.651733 94 47 21
215.170532 -1703.674194 963.717224 114 51 25
221.656982 -1705.626709 971.032959 114 55 29
218.668396 -1706.584351 970.280396 114 57 31
218.472717 -1706.531494 970.301392 114 57 31
223.953308 -1705.927856 976.488159 85 43 20
237.834900 -1713.307129 959.003479 93 53 25
224.714478 -1710.741577 972.671265 64 36 17
234.907166 -1714.387451 960.847595 82 50 23
244.414307 -1714.543457 965.541260 79 50 25
286.368469 -1908.898193 816.724976 114 71 40
270.608215 -1910.891113 804.495728 167 99 59
274.193115 -1909.474487 807.725830 154 93 53
262.788391 -1915.058960 801.746338 148 83 46
269.473511 -1923.932495 792.463623 144 83 38
266.274780 -1923.231323 797.400085 160 92 48
282.635559 -1937.738647 816.944641 162 99 59
274.119873 -1941.403198 812.107788 148 89 46
276.271057 -1941.648071 815.376465 131 76 39
276.708252 -1941.776123 815.295959 134 79 41
-593.700256 -585.416260 222.308716 120 72 39
-594.010986 -589.858582 221.044312 128 54 28
-593.415710 -590.351318 223.294250 132 57 33
-593.427368 -589.068176 222.676453 134 59 33
-542.243530 -619.249023 289.917969 95 54 33
-541.781860 -622.474365 278.402740 78 45 18
-542.360596 -625.088257 274.031158 89 49 23
-539.977051 -627.337402 271.748993 83 52 28
-545.344910 -625.558044 289.863403 102 51 32
-542.302368 -629.972290 273.218475 69 42 20
-539.394592 -627.882996 292.482422 96 53 33
-532.895813 -628.498047 292.967712 95 56 36
-531.913391 -635.037415 289.237915 79 52 31
-533.975647 -635.205750 292.078125 85 56 32
-566.151245 -844.640320 236.075500 59 31 21
-564.786865 -849.122620 228.240540 91 35 25
-569.532471 -847.687378 235.761841 81 45 32
-564.251160 -850.057007 230.878723 98 39 28
-416.000885 -833.043884 660.830383 217 95 88
-418.577393 -834.933533 660.846375 202 75 68
-415.057953 -834.787964 663.370911 217 98 89
-409.116943 -835.048157 674.336426 206 75 70
-400.607239 -836.007629 676.007202 217 81 76
-394.033905 -833.980774 679.561279 195 83 75
-386.907227 -835.390137 681.218384 135 80 51
-391.355042 -840.698486 675.625305 207 76 72
-388.736267 -843.871582 676.214172 197 81 73
-387.876282 -841.608582 676.907471 198 80 73
-385.615723 -842.679871 677.285828 191 82 69
-409.270782 -846.602051 670.600891 199 69 67
-411.638367 -853.111877 658.258728 197 88 66
-410.127808 -856.751404 654.168945 169 71 39
-406.056122 -857.343750 656.129089 149 68 33
-406.941956 -854.979675 657.259888 173 81 49
-405.638123 -857.088135 659.314636 162 76 45
-405.772827 -858.936279 654.853699 133 71 32
-408.711426 -858.301086 654.438782 157 77 37
-403.665283 -860.572998 657.704529 75 40 17
-389.153717 -865.547852 649.740417 74 48 28
-705.334045 -920.479187 781.584656 96 42 21
-301.327545 -911.602234 565.154724 146 74 47
-302.382233 -916.285156 564.653625 160 79 52
-296.442688 -933.352112 572.035828 169 78 52
-291.768127 -933.521729 576.455688 165 61 51
-301.629089 -938.498047 549.595703 149 70 44
-135.766113 -868.725769 1592.060059 100 63 35
-157.111969 -863.750977 1664.024292 169 74 46
-15.649231 -815.830383 2328.565918 81 49 29
-291.827850 -941.038696 576.416321 145 43 36
-694.716125 -946.462402 805.080994 65 38 24
-14.907288 -820.155273 2330.206543 78 45 31
-698.083374 -948.283936 804.079895 73 48 26
-156.479889 -876.450134 1653.505493 198 115 80
-127.642883 -884.912659 1593.195312 79 36 28
-158.037384 -884.309021 1643.696777 104 52 35
-281.654236 -957.572388 570.799316 151 50 41
-279.543854 -957.414734 570.708862 158 54 46
-153.830994 -885.068176 1641.645752 87 42 28
-294.715088 -964.041077 528.683533 107 52 28
-291.140015 -961.187256 549.922729 176 69 56
-209.302246 -893.651917 1608.551270 107 62 40
-207.149872 -893.088440 1608.709229 105 64 41
-287.533997 -965.274902 524.062256 92 51 23
-288.803406 -965.584351 550.022644 147 53 38
-288.359497 -963.464233 552.280396 159 56 43
-719.559021 -967.127136 768.621338 178 76 39
-280.201599 -965.760071 558.540527 136 46 35
-717.501099 -968.079895 768.294495 168 69 37
76.648438 -910.437805 1355.035400 139 76 37
-708.421082 -975.362366 776.737732 177 86 51
-706.517639 -975.410156 778.033997 178 83 50
78.991150 -917.142761 1316.706787 121 63 36
71.788818 -914.009705 1346.121582 176 105 58
-711.556030 -978.047119 775.671448 166 78 43
-709.308411 -978.093506 776.799500 171 82 48
-706.747070 -976.968140 776.355347 171 83 48
83.548584 -922.698425 1318.110962 102 55 26
-720.198853 -984.087402 764.201660 109 54 25
65.159668 -932.748596 1654.552979 97 47 34
59.155212 -932.840881 1656.368896 97 42 29
55.399963 -936.438660 1650.688477 87 43 26
47.076172 -937.760437 1675.096558 115 66 47
49.673157 -936.866333 1681.072266 58 28 19
46.374634 -942.860657 1665.792725 130 57 48
49.981873 -953.904785 1656.496704 129 66 46
-27.799988 -955.316284 1876.286255 145 57 55
-13.605469 -962.186584 1801.820312 106 56 39
-16.291016 -958.464783 1902.508179 144 66 53
-42.918213 -966.392334 1844.788818 141 59 58
-16.705872 -974.993774 1861.520142 170 108 67
-14.369141 -977.411987 1857.347534 162 104 65
-320.218018 -1083.348145 687.417908 170 62 44
-320.270264 -1108.561279 687.992065 188 77 58
-320.881470 -1108.499146 688.302063 189 77 58
-327.026520 -1111.548950 685.275574 166 60 39
89.805725 -1125.244995 1177.842773 145 41 39
112.323914 -1141.773438 1160.976074 81 43 23
102.271484 -1152.522095 1194.921143 139 60 45
113.747253 -1151.228516 1207.133911 140 55 37
-263.523376 -1170.166992 669.210815 76 42 17
-266.368073 -1173.193359 672.417603 78 43 19
-266.183167 -1175.532227 674.743774 84 46 21
495.575562 -1386.074341 438.633240 119 71 43
491.960205 -1387.207764 439.811615 120 70 42
100.834900 -1334.932983 1217.661011 151 80 42
247.513489 -1384.989258 871.545654 146 76 32
165.429016 -1348.617188 1263.820312 143 58 51
100.077271 -1355.947021 1218.588013 180 108 53
109.294373 -1359.585938 1230.462646 200 112 75
194.989624 -1396.170776 892.988647 153 76 42
207.718323 -1407.775635 916.017517 132 67 33
203.158630 -1413.261230 915.777588 85 50 23
231.171387 -1445.144409 1014.017822 164 95 55
210.867249 -1454.204224 1004.423096 185 111 71
224.129089 -1454.570557 1017.601318 181 101 66
217.442444 -1461.644287 1004.261047 181 106 70
211.704102 -1469.048950 1000.230103 163 89 55
214.798035 -1474.200562 999.980713 177 105 65
214.683777 -1474.089233 999.967224 177 105 65
213.398926 -1474.352783 1000.116150 168 97 60
209.659729 -1478.137451 1001.309692 162 97 55
201.628845 -1560.948364 1045.609497 184 95 62
194.683838 -1559.948486 1045.432617 176 89 58
201.855896 -1563.565796 1048.042725 188 105 68
205.018372 -1573.135376 1049.010498 190 115 73
179.474915 -1670.098999 968.813965 183 121 71
210.287903 -1679.059692 978.194641 189 111 73
204.968201 -1685.085938 972.807495 169 93 53
213.626892 -1684.503540 984.943787 141 60 31
202.637146 -1694.786743 961.084473 136 66 32
218.958252 -1701.232666 967.270447 135 61 30
279.687988 -1912.944946 819.233948 126 70 44
274.272461 -1909.987061 817.779663 117 68 39
287.143921 -1914.945435 821.046692 107 64 39
276.169617 -1913.369019 818.460022 132 72 44
269.437500 -1914.833252 819.764160 135 71 44
270.859741 -1915.304932 819.540222 134 70 42
-544.357666 -617.024170 285.292542 78 51 30
-528.160095 -625.529114 285.760895 123 72 45
-463.933228 -676.283081 676.456787 149 84 59
-566.274780 -843.793762 235.735535 70 38 28
-561.725037 -846.524780 239.042999 78 41 27
-562.167236 -846.500183 239.266663 77 40 26
-413.808807 -855.095337 654.568420 189 87 50
-412.915375 -856.863220 653.163635 169 74 37
-411.321777 -855.035950 655.818359 186 78 48
-407.536835 -857.309570 655.418579 169 87 43
-383.435364 -866.876221 649.802612 126 80 43
-703.614990 -920.317749 783.499695 98 44 23
-148.790894 -811.437134 1641.645630 143 53 44
-701.630798 -928.446960 788.999084 133 73 40
-700.042053 -930.152039 789.599854 143 69 47
-303.639374 -912.765686 563.369751 153 92 55
-703.093262 -933.462708 794.253479 148 62 51
-703.093262 -933.462708 794.253479 148 62 51
-299.540222 -915.203674 576.636230 96 46 28
-712.218506 -937.574890 779.452515 165 58 39
-712.575989 -939.602173 778.201477 180 72 49
-156.058838 -833.476135 1662.466553 198 95 65
-718.181580 -947.567688 773.313721 190 80 47
-717.043457 -949.043579 782.103638 200 93 70
-280.809845 -931.085388 575.887268 147 51 43
-296.426697 -932.272278 587.577698 105 59 43
-737.553101 -955.354370 779.284973 165 64 36
-717.014954 -952.207703 781.193726 212 102 76
-166.889679 -850.282715 1657.807495 193 88 57
-297.048492 -941.677002 572.065430 170 72 51
84.050354 -863.830994 1300.507690 174 81 56
84.293091 -864.975952 1300.045288 168 85 56
-156.734375 -863.531921 1664.413818 154 62 38
-713.722717 -971.163513 768.760437 181 79 48
-714.147095 -971.282532 770.958374 187 82 49
-297.574432 -961.004089 540.261414 146 55 38
-710.581726 -973.970886 777.445984 194 98 58
-708.870605 -973.842407 778.973145 200 102 68
-709.163818 -972.437317 780.885681 206 108 74
-138.187378 -873.534546 1608.718750 79 51 32
-275.385468 -960.881470 569.424927 147 53 45
-710.484070 -975.299988 775.546875 174 85 44
-706.524109 -975.414490 778.053711 180 87 54
-163.066162 -875.965759 1647.191406 178 89 68
-157.251007 -876.287781 1652.194580 185 98 70
-708.344116 -978.017212 771.729492 153 72 39
-99.147736 -798.099976 2707.384277 125 60 50
-281.708557 -967.217285 562.481506 140 53 40
-279.027191 -971.911499 536.348755 98 54 27
-707.325806 -981.409912 775.685059 134 60 30
-156.321289 -885.919922 1641.475830 90 43 29
-188.435791 -889.682190 1632.125244 98 41 30
-93.069824 -824.698486 2645.747559 71 29 21
-91.274414 -829.322205 2616.655762 114 58 46
-92.778992 -827.954834 2645.444092 70 30 20
-91.229919 -827.724792 2645.161377 79 35 25
-88.798737 -830.770142 2644.802734 78 35 26
86.424194 -919.874207 1311.950684 71 41 16
-56.196472 -832.092285 2625.974609 95 53 36
-81.062134 -835.045898 2616.086182 101 57 41
-90.103699 -835.048340 2619.950684 130 66 53
-95.399628 -836.702759 2621.342285 137 68 56
-85.235168 -833.969299 2644.363770 76 36 26
-85.753876 -833.331482 2644.327637 80 37 28
-69.931671 -836.741516 2617.428711 89 52 36
-86.384216 -837.338074 2619.829590 121 65 48
-81.891541 -837.135925 2643.555908 70 35 25
79.173706 -923.229126 1336.277588 136 68 34
-67.777557 -839.192566 2619.752686 89 53 36
-58.201508 -838.823853 2625.060547 90 56 37
-82.232178 -840.305969 2633.456543 140 74 56
-76.669525 -842.082947 2629.343262 119 64 47
-79.867188 -844.123901 2631.840332 102 55 38
-80.759613 -842.981079 2631.851074 124 67 48
-72.330597 -845.953613 2629.213379 63 36 25
-112.881805 -847.071960 2622.928223 102 51 40
-41.770966 -860.415833 2676.829590 88 33 32
-47.608490 -864.753235 2658.751465 72 36 28
-48.079742 -864.574585 2662.333252 75 33 30
-43.617767 -866.499756 2660.506592 81 38 30
-44.221161 -867.595825 2663.151611 91 40 33
-44.611725 -867.478455 2663.505127 92 40 33
-40.674774 -865.044861 2681.474121 118 43 41
-43.039459 -866.466248 2682.071533 121 49 47
-46.564453 -871.624146 2661.019531 100 44 37
-48.800385 -868.882202 2671.920898 109 42 40
-96.209412 -870.290100 2697.606934 83 48 29
-46.116730 -873.882385 2650.206055 82 47 33
-48.085297 -872.173828 2656.141602 89 42 33
-47.024994 -871.981506 2664.600342 105 44 40
-51.111511 -874.442993 2664.612793 112 48 45
-60.187714 -868.895813 2730.344238 62 41 23
-44.263672 -882.358337 2646.327881 93 54 38
54.948547 -956.642883 1649.665527 114 69 35
50.267944 -959.216919 1652.876953 134 86 46
53.905823 -962.435181 1653.641357 112 56 32
-44.578033 -949.288940 1870.904053 141 52 49
-17.029175 -959.187683 1784.718872 142 78 53
-36.571869 -953.324158 1870.527466 151 58 54
-14.674866 -962.016113 1800.893799 115 61 42
0.678711 -963.358459 1811.365356 64 36 23
8.685059 -965.499207 1812.044189 73 45 28
-5.543457 -973.065613 1895.928589 76 49 26
-5.482239 -973.060791 1895.971436 76 49 26
-0.802795 -970.867737 1912.138306 120 65 44
-0.306213 -975.068298 1898.827759 52 35 20
-315.541077 -1070.104492 690.384155 207 85 63
-313.384827 -1120.378662 680.648438 126 49 28
-317.472107 -1128.314087 687.339355 120 49 30
107.047058 -1113.313477 1207.226929 169 63 54
113.904053 -1126.513794 1153.876587 70 40 23
112.865112 -1126.515747 1152.630127 48 27 14
105.138123 -1151.502808 1181.617676 78 32 17
107.538025 -1153.035889 1182.500122 77 34 18
485.460876 -1385.517456 439.051117 118 71 44
460.470703 -1417.325562 431.981354 93 52 21
124.134583 -1340.827026 1245.706909 179 94 72
124.593933 -1344.637207 1245.339355 179 92 69
214.508423 -1450.974976 1005.823120 179 107 68
187.383301 -1458.033203 991.680603 139 85 44
203.278992 -1462.682983 996.543579 149 88 51
185.247864 -1461.604614 992.656616 139 85 44
203.942932 -1464.456543 993.869690 150 88 47
216.109375 -1466.432129 1001.937988 169 94 59
205.757812 -1681.956421 975.145752 180 105 65
231.977844 -1706.353760 947.892334 95 49 22
271.820251 -1926.991577 793.357361 150 86 42
-703.178101 -920.388489 784.546753 92 41 20
-557.021851 -843.781311 238.673096 93 47 29
-702.335144 -922.952454 788.007080 114 47 27
-693.963013 -920.898682 794.200256 94 43 29
-689.872192 -919.105713 795.071838 105 54 37
-554.569824 -848.162231 236.121216 114 49 35
-691.587341 -920.960083 795.393372 129 61 47
-687.778564 -919.156738 796.598877 98 56 35
-551.218201 -848.137451 234.746155 118 42 31
-550.263245 -847.923584 236.859680 132 48 37
-554.241760 -850.473511 249.492737 115 54 32
-554.765381 -850.597412 249.296570 114 53 34
-552.544800 -850.909241 235.973083 127 45 34
-543.286133 -848.636536 235.992554 142 53 40
-555.708313 -853.231201 247.996826 137 52 37
-552.967468 -852.572083 249.169250 118 52 34
-550.898804 -852.555115 250.731323 112 58 32
-551.151123 -852.492920 226.877991 137 56 41
-548.403870 -851.966675 228.311707 126 50 36
-539.460449 -848.775940 228.455627 125 51 38
-543.691650 -849.368958 234.916931 142 54 41
-537.317932 -847.331848 230.152893 126 49 36
-537.934875 -848.153076 233.913147 141 56 40
-535.145081 -847.184143 236.784302 139 56 36
-532.617310 -846.782593 235.145996 135 54 35
-550.216492 -853.727112 248.208588 142 59 38
-547.057190 -851.865601 250.670807 124 70 36
-540.908203 -851.374878 226.555908 125 57 39
-542.008545 -851.058411 226.736023 139 61 44
-536.527222 -848.903198 230.900635 128 54 37
-534.674805 -848.230957 229.770752 140 61 44
-531.362549 -848.483582 229.183838 131 62 39
-533.044189 -847.856689 232.356445 137 60 40
-530.202454 -847.196350 234.595642 138 62 39
-528.595581 -845.222595 236.098083 139 59 38
-530.647949 -847.502747 238.052185 138 60 38
-528.049072 -846.780823 237.053955 136 62 38
-543.190002 -851.928223 249.491302 136 68 37
-534.032715 -847.874512 244.131378 136 64 37
-544.703308 -853.279236 252.066010 124 71 37
-541.530945 -853.638672 224.814514 128 77 43
-540.502502 -852.774719 227.582031 118 59 37
-535.583740 -851.876038 225.146545 120 70 39
-532.595520 -849.253479 225.797668 126 65 40
-532.319702 -850.766541 229.514282 121 66 36
-528.550720 -847.587463 234.455322 136 66 39
-527.174927 -848.211853 234.712769 133 73 40
-530.177429 -848.978027 239.052856 134 64 38
-713.572083 -946.638123 778.916443 224 114 73
-712.663940 -953.099365 795.640442 186 83 60
-712.530884 -960.612671 751.033997 134 59 32
-714.608459 -962.584045 758.170776 170 73 41
-714.172974 -969.169922 763.582947 182 83 51
-715.313354 -969.833069 768.508057 175 73 45
-715.690308 -968.991150 777.309509 196 93 55
-713.706299 -969.530396 761.268433 174 80 44
-713.658752 -970.350098 770.956116 183 81 47
-712.995117 -969.093689 774.179626 201 93 56
-715.249878 -970.603760 776.036621 196 92 55
-713.689697 -972.536926 776.529053 197 101 55
-712.504150 -972.945740 774.674744 197 103 53
-710.946655 -973.168762 775.974854 198 105 56
-708.792725 -972.578247 783.140442 213 117 83
-709.451050 -974.336060 778.738464 203 106 71
-707.583984 -973.755920 780.709229 205 108 75
-707.734863 -974.568115 780.240479 195 100 68
-707.547302 -974.498718 782.398987 205 109 75
-708.284180 -974.805115 782.311096 206 110 75
-707.506958 -975.005493 784.106323 196 100 66
-708.428772 -976.829712 775.001343 166 79 45
-706.831604 -976.497681 779.847717 190 99 64
-706.778687 -978.235229 773.127441 146 68 36
-705.733398 -978.004761 774.679016 155 74 40
-708.234985 -978.443848 778.509766 183 93 57
-705.979553 -976.659729 781.348328 198 105 70
-736.106079 -995.845703 765.503357 98 56 25
-736.859863 -996.017090 767.601929 104 57 27
-736.859863 -996.017090 767.601929 104 57 27
-735.549561 -1001.258301 767.396240 98 59 26
-736.220154 -1001.187134 769.706238 108 61 29
-736.786011 -1002.332886 770.028442 104 61 26
-700.856873 -989.598633 782.341614 161 88 49
-696.546631 -987.484741 783.375610 162 85 48
-152.373291 -865.954773 1668.317139 111 42 24
-143.186066 -863.977112 1671.198120 87 34 19
-285.524292 -919.241516 578.535583 149 81 57
-124.124115 -867.173218 1591.072266 97 62 31
-156.780029 -878.549438 1649.443359 160 80 55
-155.264587 -878.675903 1652.113770 172 101 62
-155.061310 -878.866699 1652.683472 182 109 67
-121.322235 -868.545654 1587.956543 87 55 27
-151.522675 -879.722412 1652.997314 138 80 41
-153.205200 -878.992065 1654.759277 184 113 64
-306.632996 -931.204895 523.497559 102 47 23
-127.650909 -873.937195 1593.477051 106 56 38
-150.070038 -880.342407 1650.149658 124 62 38
-126.256836 -876.076111 1592.759521 119 62 46
-300.916138 -935.063110 556.272644 112 62 30
-127.690704 -878.905273 1594.329102 100 50 40
-145.262756 -893.797852 1595.307617 90 46 35
-301.138123 -954.619141 524.978760 132 73 37
-149.144287 -902.989868 1575.303223 76 48 30
-278.411865 -948.515808 581.348633 137 63 56
-300.153320 -961.841125 535.641724 142 57 35
-300.457336 -960.270203 538.194153 151 59 40
79.967163 -834.938538 1314.196655 114 62 42
-293.063782 -965.831116 535.925659 157 77 45
-290.791321 -965.324768 539.913391 142 61 38
-288.123352 -967.965271 534.714355 119 57 32
-284.074249 -967.627930 537.392822 131 62 37
-285.736755 -968.154663 537.309143 130 62 37
-283.053070 -968.633362 538.594543 131 63 37
-283.799530 -967.775879 539.746643 134 63 37
-273.852448 -965.077209 562.040283 133 44 35
-283.562561 -970.491272 529.494751 89 54 25
-282.045990 -970.884033 533.719238 103 56 29
-279.502441 -968.593872 551.141479 127 48 33
-270.781189 -968.063843 552.723145 130 51 38
-271.592468 -966.353149 554.865845 132 48 36
-266.354553 -966.374756 559.319702 117 45 35
-268.079407 -966.242188 569.705750 87 55 33
-280.504822 -972.946350 533.879028 85 51 25
-274.548981 -969.779602 549.757507 125 52 37
-264.116119 -966.506409 561.650024 101 45 32
-262.899200 -968.403137 560.462646 59 33 21
-271.752625 -971.396912 542.569946 100 50 33
-272.575592 -973.288635 545.818604 102 55 35
-49.816223 -911.758118 1823.772217 128 59 50
-58.029297 -923.696350 1824.858154 156 65 61
73.771912 -889.689148 1321.450195 147 73 42
73.614319 -889.901794 1323.809204 158 73 44
-29.271637 -931.605774 1790.562378 136 79 53
-52.759644 -947.960693 1816.179321 100 57 36
-51.484833 -950.344238 1812.128052 81 52 29
73.170288 -915.866211 1344.340088 173 101 54
-56.048126 -954.141968 1823.025269 128 63 48
78.237549 -919.205566 1321.277588 148 76 49
-39.962341 -951.590576 1871.856934 158 63 59
80.257629 -920.314331 1322.751709 132 63 41
72.519348 -924.543945 1331.489624 127 59 31
-42.151825 -954.440063 1865.074463 142 61 48
83.339233 -924.126160 1313.416870 77 46 20
85.027344 -923.369446 1324.264160 111 51 31
82.214539 -924.401184 1326.770142 124 58 35
78.179810 -924.647766 1340.772461 173 99 66
-46.884033 -958.912598 1826.183594 115 56 43
98.597473 -920.205994 1313.546631 87 55 27
-51.046722 -960.892395 1833.263672 133 61 52
-31.477081 -955.819824 1870.048828 166 70 66
95.199646 -924.274170 1317.786499 93 55 30
92.579041 -925.576416 1321.003662 94 51 26
91.496460 -925.882385 1324.378418 102 53 27
88.553162 -928.385254 1324.015869 97 51 25
-19.771362 -954.789246 1803.505127 120 70 40
104.827637 -924.627869 1317.586792 67 41 24
94.402771 -928.058960 1319.605957 79 46 26
94.206055 -927.290222 1323.906616 97 53 28
92.540588 -928.015625 1329.317383 113 59 32
89.836792 -931.079102 1331.783936 115 64 43
-16.575439 -957.830383 1810.270386 55 32 14
-16.961121 -957.764099 1818.447021 71 48 29
-14.679749 -955.308838 1897.169678 140 61 51
93.196716 -930.222717 1328.666748 105 59 34
-13.837830 -957.921997 1790.652466 146 81 57
-15.649841 -958.918579 1792.648315 144 79 55
-38.161011 -965.898926 1820.746094 71 44 29
-13.894653 -958.346252 1900.101562 135 60 47
-15.129761 -958.841431 1902.784912 139 64 49
-12.822388 -960.804565 1789.629639 149 83 55
-12.142090 -963.893982 1774.907349 102 62 31
-7.823303 -963.727905 1782.777710 96 53 29
-5.617249 -962.613647 1796.417358 136 77 49
-9.878540 -963.055298 1894.663208 109 56 34
-12.000305 -963.072327 1899.257935 110 51 35
-8.409729 -966.185364 1777.083496 93 58 30
-4.801025 -964.085693 1781.292358 110 68 34
-22.899628 -969.153259 1859.952393 127 59 51
-6.111938 -965.006165 1888.865112 81 47 21
-10.315247 -964.800903 1902.581665 110 52 35
-10.416504 -969.132324 1799.559204 121 68 46
4.359070 -964.301758 1813.928589 55 33 18
-6.817749 -967.271606 1897.431885 92 50 26
-14.917847 -971.195557 1848.585571 93 56 38
1.752258 -967.419861 1883.790527 52 31 15
0.299194 -968.884338 1886.181641 53 33 17
8.349121 -967.806763 1811.167114 62 37 21
1.473816 -969.829956 1885.446167 48 29 14
-0.379211 -971.515747 1887.493164 41 27 15
-5.214050 -970.267456 1914.518188 111 59 41
58.757812 -959.290649 1644.911255 89 50 27
-1.274597 -973.186951 1895.349976 57 36 18
-0.917664 -971.708435 1909.302246 89 53 30
60.982605 -963.871704 1644.135132 101 58 35
62.161194 -964.884155 1647.155029 108 57 35
59.415344 -965.630798 1654.929199 129 64 47
-322.610779 -1088.343872 692.240845 187 81 64
-323.311035 -1087.888062 694.876343 191 88 67
69.687683 -969.777832 1643.481689 81 51 31
70.407043 -968.329285 1649.777710 94 50 31
70.770203 -967.898010 1652.685547 118 65 44
73.214417 -970.856812 1645.785767 76 46 29
70.658203 -970.794922 1655.580322 107 54 35
-397.787109 -1119.686768 730.628723 159 74 46
-314.618896 -1126.584351 667.369446 117 69 30
-350.378906 -1136.118408 686.992981 128 54 30
-305.849945 -1127.108032 662.461914 115 70 32
-310.542053 -1127.625732 666.669006 118 69 32
-313.827484 -1128.803101 671.901917 113 57 27
-295.434692 -1126.280518 659.845215 89 52 25
-306.789459 -1128.796631 666.073730 104 58 29
-310.477539 -1130.791138 671.558167 101 50 25
-292.049774 -1127.246704 660.454468 99 60 28
-298.499725 -1131.151367 676.561401 99 47 24
-298.061462 -1132.999268 679.180359 92 43 20
-301.141998 -1133.275635 685.889709 124 57 27
-292.862396 -1132.875488 668.733032 71 42 22
-297.343811 -1133.338745 676.533447 89 44 20
-268.057648 -1166.994629 668.025269 78 45 17
-264.927765 -1170.000488 668.312988 75 44 18
-270.482971 -1172.878174 674.612610 100 53 23
100.405884 -1103.902588 1176.918945 105 31 29
96.189209 -1143.519531 1185.730957 157 64 49
96.013550 -1144.622437 1203.393066 159 66 41
98.449097 -1144.946777 1205.727783 167 77 45
122.868469 -1146.983765 1165.804810 66 37 19
109.280945 -1149.765259 1172.921265 49 27 11
100.969238 -1150.298706 1180.405762 77 35 18
107.842163 -1149.038452 1205.151367 151 59 41
121.674194 -1148.157227 1169.125977 55 30 13
108.259338 -1152.143677 1199.466553 142 57 40
105.783081 -1154.305176 1184.831299 88 37 20
111.261047 -1153.585083 1201.726807 118 42 30
111.512634 -1156.031372 1181.469238 46 24 10
111.000671 -1156.041382 1179.745605 62 36 15
109.765259 -1157.077881 1183.054321 53 26 12
113.721008 -1155.380005 1187.987671 80 32 18
112.318726 -1159.132202 1184.865723 70 33 18
260.413025 -1284.710449 780.226929 109 59 27
114.264771 -1373.351440 1210.315308 70 39 16
-167.861755 -1398.225220 1243.026855 139 88 55
252.099670 -1471.271362 1017.424927 161 93 61
-56.457672 -1577.250366 1044.807495 129 84 45
-38.998230 -1580.369995 1046.038574 129 75 36
204.016052 -1673.617676 978.679504 184 113 73
204.016052 -1673.617676 978.679504 184 113 73
207.178040 -1678.382812 976.462708 176 103 66
201.710266 -1681.745850 972.588684 177 105 63
200.519775 -1681.075928 972.168579 168 97 57
199.437195 -1684.391968 969.788574 157 84 45
271.260376 -1923.953247 795.396179 161 94 48
278.418274 -1939.025391 816.485657 131 73 38
-633.266541 -844.340576 273.614838 98 54 27
-551.010986 -844.645630 236.269287 84 38 25
-567.631409 -854.509766 230.886719 105 36 26
-566.117310 -856.108337 227.955017 111 44 29
-552.943359 -853.256226 231.802429 117 41 31
-547.926025 -850.852295 231.448059 119 41 30
-540.054626 -849.686157 227.384888 117 46 34
-543.384338 -849.868042 227.971191 119 45 33
-537.869324 -848.777649 228.801880 117 45 32
-539.571167 -851.674072 224.177795 117 56 34
-536.306885 -849.459717 226.843872 114 46 32
-698.182007 -914.900879 771.257568 41 22 9
-695.499512 -920.771545 792.781860 74 35 21
-710.061279 -932.720337 786.714722 148 49 33
-697.391846 -938.992676 802.585205 145 63 56
-717.149902 -966.164001 785.328552 161 70 44
-714.085510 -965.628967 786.279053 181 89 59
-728.594299 -992.563721 768.740601 114 55 26
-737.619995 -999.335449 768.965515 97 53 25
-738.500854 -999.635742 771.054932 106 55 27
-740.394287 -1000.511719 767.976013 92 51 24
-741.519165 -1000.897217 770.201904 100 53 26
-98.861694 -797.267883 2709.917480 76 37 24
-95.493408 -798.148987 2714.241211 83 42 32
-303.983429 -929.493958 570.222412 165 65 47
-171.530945 -869.719482 1635.540283 151 58 48
-205.355530 -891.895691 1617.674316 135 66 49
-205.355530 -891.895691 1617.674316 135 66 49
-85.062225 -828.757690 2643.471191 121 56 47
-88.578949 -830.449707 2645.482666 67 29 20
-126.324280 -867.250000 1579.372925 39 22 11
-84.979126 -832.960876 2616.458984 102 54 41
-89.405518 -835.067688 2646.262939 62 34 24
-37.851898 -826.951965 2345.181641 115 51 44
-73.171112 -832.275696 2618.426025 87 48 33
-186.800598 -894.683899 1629.885498 104 44 31
-151.975800 -880.858826 1647.808472 131 65 42
-147.178253 -881.033325 1647.945801 105 52 33
-147.875244 -881.618652 1653.215820 107 55 32
-16.573792 -824.749268 2273.793701 163 67 65
-4.536072 -819.806274 2333.192627 78 45 31
-30.481781 -829.344971 2356.096191 129 56 51
-79.172119 -840.294434 2621.778809 114 63 44
-114.843628 -852.834229 2622.449951 65 31 22
-309.418823 -957.084106 533.405884 108 42 24
-297.817810 -953.627258 548.655151 190 89 65
-278.616791 -947.221069 575.376465 147 46 40
-192.642792 -899.564392 1627.024170 84 50 33
-148.869690 -883.720337 1644.864868 84 37 24
-28.655212 -832.916809 2346.686035 115 52 44
-29.603729 -832.131104 2352.352295 118 50 44
-29.850739 -830.645813 2357.216309 130 56 51
-66.029724 -839.165527 2624.341797 94 53 36
-71.783112 -841.457214 2628.308105 105 56 41
-113.008148 -852.554443 2624.385254 48 25 18
-300.812469 -959.376770 532.682861 110 40 25
-277.007996 -949.937988 574.523376 147 46 42
-188.382141 -899.658997 1629.334717 83 49 31
-15.564880 -830.704956 2345.734375 113 51 41
-13.944275 -830.155518 2349.445557 126 55 46
-23.190552 -833.328613 2351.217529 115 48 41
-59.803802 -839.191406 2627.777100 91 52 37
-270.774963 -952.492188 573.148438 127 42 39
-111.815582 -862.237610 2663.609375 100 43 41
-114.557007 -863.061829 2662.534180 100 43 41
-285.387878 -961.822083 567.892395 143 41 33
-287.175720 -966.650452 542.730164 133 56 34
-282.920959 -966.570129 557.738953 123 38 28
-278.450897 -964.205505 562.256226 127 38 28
-272.178162 -961.902527 566.566895 123 38 32
-6.989136 -847.678772 2242.020020 91 40 35
-277.887695 -967.636658 539.412292 120 53 31
-270.340698 -964.923218 559.238342 122 40 32
-268.272552 -963.639282 560.522827 134 46 37
-264.709564 -964.243958 567.241821 84 43 28
-2.987244 -848.986023 2241.858398 89 40 36
-267.181702 -972.165588 540.175415 88 53 28
-1.042236 -855.821899 2243.201660 86 40 35
-42.118927 -864.149719 2668.419922 79 32 30
-46.805878 -870.176819 2652.796631 74 38 30
-29.248413 -897.996216 2321.063477 111 46 45
70.165100 -891.904785 1355.673218 164 65 47
-42.836639 -941.768311 1881.364136 152 66 52
85.259949 -913.437317 1355.879639 74 48 26
-36.524414 -940.790039 1884.958252 139 59 42
76.356140 -925.187012 1331.159180 118 52 26
88.741760 -921.241638 1347.907471 86 55 35
94.802124 -917.815796 1349.161621 77 49 30
86.160767 -924.628845 1315.457764 78 43 22
79.806763 -926.354736 1330.962891 145 71 40
35.751892 -936.397766 1666.350586 98 38 27
92.720764 -926.921021 1327.078369 105 51 24
88.266052 -927.165894 1329.659912 125 61 35
-23.191803 -954.939819 1790.571045 145 76 58
107.972778 -925.173462 1321.277832 71 39 22
-48.319763 -963.167664 1832.549805 114 53 45
-21.827271 -959.016846 1883.826416 94 48 26
-16.180847 -961.708191 1772.967285 92 56 27
-13.196899 -964.280640 1788.962524 118 64 39
-9.678162 -960.127686 1884.406860 81 47 21
-15.762634 -962.018799 1895.744507 110 51 37
-7.056763 -964.395752 1786.722046 108 60 35
-0.110657 -962.509949 1808.524536 91 46 30
-1.302551 -963.521179 1807.597046 90 45 29
-6.926575 -964.391235 1880.666138 49 30 16
60.010742 -951.507019 1642.033447 50 27 11
1.617371 -966.632141 1780.130127 75 46 28
-19.839722 -972.414429 1843.715332 77 48 30
-317.176331 -1079.424805 691.396545 165 58 42
-323.881409 -1085.740112 696.128052 187 82 61
57.934937 -967.603271 1659.361938 120 56 36
66.058838 -967.235107 1642.848389 93 57 34
60.972473 -971.222778 1656.578613 112 50 33
61.724365 -969.801208 1659.582275 117 52 35
61.512573 -969.434814 1662.037964 116 53 34
-304.621155 -1129.371216 669.143372 93 45 21
95.016296 -1111.375366 1165.694092 67 21 18
95.987244 -1111.751465 1165.585449 79 24 21
130.134033 -1113.740601 1219.956787 74 43 29
117.927917 -1146.847046 1214.616943 125 53 35
116.535522 -1155.589233 1204.423218 106 40 27
136.609558 -1152.530640 1172.750000 49 26 11
112.047546 -1157.826660 1193.432617 101 37 24
112.739685 -1156.817993 1193.305908 97 36 23
-165.042603 -1392.040894 1238.412354 140 72 43
-164.570038 -1395.510132 1241.313721 145 73 45
233.501038 -1451.294678 1020.629028 137 72 47
236.901245 -1462.287231 1020.573975 152 81 49
223.214294 -1468.717773 1002.416016 173 97 61
226.466492 -1468.791504 1004.550537 172 95 59
228.712219 -1467.936279 1005.071533 177 99 62
219.815186 -1480.581299 1000.852417 146 87 45
202.965881 -1565.492798 1048.316040 166 88 52
-59.598114 -1585.975098 1047.023926 111 64 28
186.035339 -1585.303223 1042.760376 172 100 57
186.167419 -1675.765015 969.988220 165 105 60
184.389465 -1676.055786 970.437622 159 99 55
178.323059 -1680.036499 969.568359 150 88 46
194.554871 -1683.707764 965.533447 136 73 30
215.889771 -1696.942383 952.671265 110 54 24
243.879150 -1714.894287 962.962341 89 56 27
265.011108 -1916.433105 810.345825 154 87 51
-696.175171 -918.565613 792.865906 78 48 25
-700.318787 -928.429443 790.682129 138 51 40
-700.856934 -930.167480 788.326294 145 55 39
-698.946289 -928.835388 789.902466 140 54 43
-293.170166 -922.812866 575.887085 164 64 45
-281.753906 -928.777100 576.807312 142 49 38
-293.852844 -964.773804 536.820801 118 46 28
-286.868652 -965.241760 549.387207 140 50 33
-286.412659 -967.149780 547.579895 129 49 30
-280.211578 -964.226929 566.697388 127 38 31
-276.238617 -963.804321 564.514404 123 37 29
-268.754303 -963.015320 563.118896 116 37 30
-274.240692 -972.829224 544.855408 111 53 36
-167.512634 -872.266541 1637.417236 168 77 65
-204.489136 -894.687744 1620.020752 144 74 57
-164.049377 -890.304443 1634.620117 61 39 20
-184.331116 -899.830688 1631.643555 54 22 14
-147.266113 -885.249268 1639.686646 53 24 14
-148.291656 -885.587219 1639.598633 54 24 14
-148.538300 -888.084351 1637.309082 41 26 14
-146.108063 -886.725159 1640.604980 40 22 12
-147.415375 -887.829102 1639.064209 36 22 12
-9.714966 -818.688049 2332.207275 78 45 31
-128.550354 -842.708191 2649.250000 86 41 34
-150.764923 -854.926270 2642.138428 109 45 43
-125.312866 -847.690002 2666.797852 124 52 50
1.850952 -851.836670 2242.357910 88 42 36
-106.383972 -862.737854 2670.735840 97 37 36
74.323975 -909.113892 1351.747803 144 78 39
-58.435608 -922.238892 1859.893433 145 49 46
71.967712 -915.961914 1328.318604 137 60 39
-43.253387 -867.405640 2667.486084 85 32 30
-43.654602 -867.276611 2667.828857 85 31 30
71.489746 -917.489624 1321.470581 113 53 27
69.951782 -918.054504 1330.506592 133 58 36
79.316101 -914.366394 1352.048218 119 76 44
74.526184 -918.583557 1339.552734 146 74 37
81.585388 -924.029236 1336.602539 128 63 32
104.178162 -920.844055 1312.354736 43 25 11
90.580750 -926.955566 1318.190796 84 47 26
-42.001007 -933.864258 1885.289795 110 64 34
92.229858 -928.720520 1322.092041 75 40 22
92.229858 -928.720520 1322.092041 75 40 22
111.018066 -926.474548 1323.143555 75 48 28
-308.829407 -1120.010986 656.481079 79 46 18
-55.738647 -957.428040 1827.045410 123 56 47
-45.325653 -953.864319 1865.473389 139 64 49
-38.346069 -953.701111 1868.913696 147 60 54
-297.931091 -1123.442017 654.864136 78 46 20
-335.615234 -1133.217773 695.873413 123 54 32
-50.283478 -961.783081 1839.214600 134 53 49
-307.473694 -1125.463623 687.884460 114 48 29
-22.450104 -957.242615 1795.864746 124 65 47
-52.713684 -964.309631 1842.394775 146 57 56
-31.086914 -954.582458 1882.981812 131 59 40
-18.849548 -952.796936 1886.104614 120 57 35
-17.460327 -952.554626 1886.724487 119 57 34
-17.064148 -963.768494 1774.614868 92 55 27
-11.464172 -963.993958 1789.658325 117 62 39
-36.012360 -967.791138 1854.098877 119 47 42
-8.460205 -966.167664 1773.564941 80 51 29
-31.104095 -967.748962 1855.904907 127 49 48
-37.143311 -972.986450 1838.367920 91 49 37
-32.220764 -970.914734 1853.337402 103 38 34
-28.501801 -970.659119 1854.866943 112 50 42
-9.155457 -970.511230 1904.781616 83 47 29
-8.667542 -971.084473 1910.252686 88 47 32
-84.633759 -1033.065308 1845.491211 126 77 50
-80.903809 -1037.264526 1843.003174 101 68 41
105.429199 -1144.023926 1211.711182 166 78 47
115.652893 -1147.552246 1214.749146 117 48 30
112.891602 -1152.020874 1209.599976 124 53 32
115.821899 -1152.575562 1204.819214 115 39 27
116.615417 -1154.075195 1210.012329 87 36 21
116.615417 -1154.075195 1210.012329 87 36 21
123.387268 -1151.949951 1211.521362 107 55 38
112.281006 -1158.484253 1187.577393 77 32 17
111.364929 -1158.349854 1195.516846 91 30 20
123.564209 -1156.341919 1199.530273 87 29 21
116.849915 -1157.296021 1206.291260 93 39 24
116.849915 -1157.296021 1206.291260 93 39 24
125.865479 -1157.545166 1197.586426 86 33 22
127.778503 -1157.255493 1199.879150 84 34 27
130.341003 -1156.987793 1204.084961 55 30 16
129.345947 -1156.965088 1201.323975 56 23 14
233.470337 -1461.574097 1018.763184 154 81 49
-31.324158 -899.021545 2318.506836 105 44 41
99.541321 -921.258972 1315.614746 78 45 23
98.419006 -920.997375 1313.739990 84 51 25
98.419006 -920.997375 1313.739990 84 51 25
0.878723 -963.747192 1772.729736 73 48 28
-3.227478 -962.391541 1808.267944 73 37 24
-2.776917 -964.442017 1804.539551 86 42 29
-2.776917 -964.442017 1804.539551 97 51 36
-13.959045 -967.070435 1864.580688 88 50 29
110.536011 -1118.567017 1214.792725 128 55 39
119.844910 -1148.774414 1212.610107 135 68 44
131.898804 -1146.594849 1215.133423 88 40 31
119.626770 -1152.308105 1207.171021 104 41 26
131.646179 -1148.116577 1211.242432 108 53 37
129.851318 -1152.216064 1209.208984 97 49 34
139.277466 -1151.403076 1212.635864 57 35 21
140.106262 -1151.085327 1213.119019 51 32 18
120.335449 -1158.395996 1187.138916 75 31 18
121.066956 -1158.366943 1189.731934 72 28 18
123.292969 -1158.046509 1192.242920 87 33 24
117.518860 -1157.454224 1194.637329 91 31 22
124.053345 -1158.098022 1194.684570 91 36 26
122.449036 -1156.365845 1194.132935 82 28 19
123.675232 -1156.018921 1197.100830 91 33 24
132.536560 -1154.666626 1206.265381 76 39 24
198.887512 -1477.446411 997.074524 154 103 63
265.722534 -1910.800781 802.454773 127 74 33
274.899292 -1941.771118 812.380371 129 73 36
-735.568359 -1004.325806 772.380310 135 71 42
-392.527313 -866.350525 643.178406 139 87 45
-390.063049 -868.532898 642.609802 132 69 29
-384.064758 -867.726685 644.821899 134 75 35
-300.313599 -939.924194 549.556702 133 69 49
-299.988159 -940.041992 549.552124 131 69 50
241.283081 -601.033081 2230.870605 100 66 41
241.954163 -603.703247 2231.999512 104 65 42
-165.648254 -873.045288 1643.066650 169 79 66
-164.810944 -872.472351 1643.706299 171 81 67
-152.420715 -878.795654 1655.449463 173 105 56
-144.365204 -880.746521 1650.946045 110 56 37
-147.205658 -883.099670 1653.360718 109 57 35
-139.503235 -882.288879 1650.248535 81 45 30
88.913452 -868.196777 1304.760376 137 76 47
64.190491 -889.700439 1339.362671 174 107 56
73.949463 -921.124268 1324.697266 150 75 49
84.778809 -925.551636 1317.714722 98 54 28
88.487244 -924.911987 1321.580078 102 53 26
88.052307 -926.144897 1327.409668 119 59 31
85.124634 -930.618286 1332.221436 146 78 51
114.598511 -921.948547 1317.906738 59 36 19
99.042358 -927.704285 1323.374634 101 62 35
95.637207 -928.883911 1326.557129 92 51 27
99.078491 -930.195679 1328.195557 111 69 44
92.249390 -931.340332 1334.382935 119 67 45
101.054932 -929.699768 1332.445557 94 52 34
-40.538483 -950.572632 1870.567871 150 64 58
-26.220459 -963.884644 1863.863037 131 51 48
-8.464294 -965.591797 1801.322510 95 50 33
-23.300812 -963.290039 1878.995117 75 41 22
-19.497131 -962.579956 1879.267578 76 41 18
-5.630371 -968.102661 1802.495850 104 56 39
1.692505 -965.596924 1808.079102 91 45 28
3.893311 -967.091064 1804.625488 89 46 33
5.137207 -964.296692 1811.298950 74 41 27
2.073242 -970.660278 1805.950439 84 46 31
-12.287720 -971.661316 1846.159912 70 46 25
-2.614624 -967.395874 1894.946655 82 50 23
69.004028 -1025.470581 1942.716309 113 64 43
71.182007 -1027.272339 1939.525269 107 59 40
61.795105 -1030.309204 1934.446411 100 53 36
84.390930 -1024.724365 1946.281982 111 64 42
84.592285 -1024.270142 1946.809937 112 66 42
92.480591 -1124.299194 1199.125366 215 121 87
95.336426 -1127.563599 1198.521484 166 71 48
120.388550 -1143.435547 1162.066895 50 24 11
119.454346 -1151.972412 1207.012207 112 45 30
115.612976 -1157.893066 1189.054199 79 32 18
130.493286 -1156.601074 1177.903564 67 39 20
123.010986 -1157.525635 1180.349854 70 35 17
124.819458 -1157.588135 1184.238403 82 36 21
124.921997 -1157.554810 1183.985718 68 29 16
123.367004 -1158.096680 1184.368652 82 36 21
187.106689 -1567.491333 1046.835693 206 125 84
-550.659180 -847.361145 269.891724 115 74 44
-550.538391 -849.797546 271.253510 123 79 48
-548.664917 -854.860535 226.805725 136 59 40
-544.228821 -852.458679 225.854309 137 59 40
-534.495178 -845.894287 232.704651 142 58 37
-545.649475 -852.623352 247.736053 141 59 34
-714.165833 -968.958313 772.527710 196 88 53
-397.523132 -864.134399 643.698914 138 94 55
-382.186981 -852.394226 678.027649 186 71 64
-394.912476 -866.275330 640.539856 151 81 33
-394.477814 -864.653015 643.251343 152 101 57
-393.101624 -865.351685 669.009033 148 82 39
-387.192322 -864.042358 664.880066 140 86 39
-386.729980 -864.734680 667.250916 156 91 47
-386.348450 -863.418579 669.695068 165 80 50
-386.723145 -869.057312 646.551025 155 98 55
-381.452393 -865.002869 657.864014 136 78 33
-382.828064 -865.833496 661.041321 135 72 30
-383.991516 -865.628723 666.841919 148 75 36
-379.444794 -862.564087 668.277710 164 72 47
-376.807739 -860.300415 670.905579 167 65 49
-383.250000 -868.189392 647.117920 147 86 42
-380.539856 -868.192017 648.420654 142 77 33
-382.204590 -868.032898 655.763062 136 76 30
67.536377 -893.073792 1331.076660 149 72 36
81.342896 -911.343628 1353.671387 135 79 41
108.569031 -924.692688 1324.665283 87 53 31
-5.012939 -961.676880 1806.283691 117 62 39
-7.641602 -966.487000 1798.941406 121 68 47
-2.157471 -966.329041 1803.162964 110 60 43
97.616943 -1358.885498 1209.846436 145 89 42
99.028687 -1357.955322 1211.011597 140 83 37
103.342957 -1359.660278 1211.084106 150 79 37
102.376526 -1359.906494 1213.218506 161 87 43
102.787109 -1361.734497 1212.065063 153 76 34
108.324280 -1365.438354 1210.811523 145 82 36
105.513245 -1363.465210 1214.566162 156 73 36
108.016235 -1369.660156 1212.866333 143 82 37
108.453308 -1369.522217 1215.333374 147 80 37
117.124634 -1369.648071 1224.703125 150 70 38
-34.873749 -891.752686 1779.663208 40 26 14
-134.540466 -916.249573 1807.883911 110 43 35
13.988953 -979.928955 1944.881470 152 61 56
6.372009 -981.112427 1952.982300 154 59 55
188.890320 -1313.527954 1186.598022 119 46 28
236.734741 -1415.703247 893.429626 135 76 39
238.078918 -1418.992432 893.765625 111 57 27
140.652832 -1339.403442 1258.475342 133 60 46
143.606506 -1367.551392 1256.174805 117 45 27
176.146057 -1312.182373 1168.916870 143 80 34
103.343811 -1102.220215 1170.284668 76 25 18
103.451416 -1102.318604 1168.523560 80 32 24
173.020874 -1311.929199 1154.966675 118 68 28
-389.279846 -848.235718 673.074524 216 86 79
-388.784302 -846.753479 674.073547 212 87 75
-2.937866 -963.240601 1805.041138 122 66 43
-501.002960 -575.316833 261.371338 185 74 71
-500.978271 -579.110046 269.377533 200 87 81
-502.504822 -579.776733 269.343170 196 77 76
-529.215454 -572.829956 258.034698 203 69 68
-536.559326 -567.719727 253.458008 147 62 32
-533.593262 -571.835266 231.552185 114 62 45
-539.946838 -566.739258 255.828796 144 62 33
-546.226562 -563.611938 234.952637 134 77 45
-540.085388 -572.419495 232.622925 140 81 56
-405.843750 -815.319580 672.613770 228 149 92
-418.866119 -816.346313 651.121155 203 86 68
-417.003906 -818.924622 653.306274 225 105 86
-408.290222 -831.822876 675.477844 233 99 93
-429.844452 -817.086243 645.871277 178 89 54
-431.458099 -817.139893 646.598267 182 83 51
-429.039703 -820.811890 638.659546 123 62 31
-427.258881 -828.178101 634.420166 101 37 22
-450.783997 -810.006531 631.133240 114 74 43
-451.592743 -810.650574 631.544067 86 49 25
-452.759766 -810.760498 631.397583 93 52 27
-452.874115 -810.012573 631.226807 126 71 45
-527.474976 -797.370728 262.713776 167 82 68
-530.070496 -804.394836 264.833557 178 77 71
-583.991577 -757.041626 218.664612 131 63 47
-576.522583 -770.108704 210.968079 145 67 53
-580.795776 -767.699890 210.779419 138 62 48
-590.963440 -759.557861 212.735657 127 59 42
-592.142761 -756.757446 239.644135 197 76 70
-590.412354 -757.769531 241.526703 196 78 71
-590.797913 -758.656189 239.942566 206 85 81
-592.906921 -757.248596 243.545227 194 72 67
-597.117310 -753.803894 233.033508 186 64 55
-592.866333 -758.477112 244.274780 198 78 70
-598.058594 -753.525879 229.965332 188 67 56
-598.535767 -753.586731 231.920654 189 66 57
-598.854004 -755.537354 228.617188 185 63 54
-600.736389 -754.367065 227.783875 176 53 44
-600.736511 -753.516968 231.026489 180 58 48
-606.430908 -758.619751 217.600098 165 59 45
-607.847900 -756.409363 235.575867 204 79 61
-607.755005 -756.544800 235.566223 205 80 62
-661.722351 -926.070984 757.191284 118 75 40
-662.823975 -925.286438 758.480469 118 74 40
-662.926392 -924.605530 760.566162 115 71 37
-663.885376 -924.153320 756.787048 119 75 42
-664.951965 -920.537354 762.248657 116 71 37
-666.120850 -924.504333 752.247742 117 72 37
-665.838867 -928.285950 750.956177 115 70 31
-669.054932 -923.689941 751.463867 114 66 28
-673.245972 -919.568298 757.590454 120 60 34
-678.170837 -914.029480 758.689514 119 56 32
-717.839722 -845.043152 792.318298 128 76 38
-717.809143 -847.653259 791.325623 132 73 39
-718.995850 -844.512207 792.493286 120 72 35
-693.809448 -915.915649 766.477539 137 59 35
-699.721680 -919.554382 751.355835 129 59 29
-703.680786 -907.000488 782.263611 144 70 47
-706.711060 -909.530823 753.761292 132 56 30
-709.836487 -893.135925 783.678955 152 78 54
-711.613159 -889.928040 786.420959 151 80 51
-705.575439 -914.752197 759.949219 134 44 31
-705.575439 -914.752197 759.949219 134 44 31
-710.525391 -896.618774 782.482971 161 85 63
-711.231201 -894.496155 783.993835 164 90 67
-711.569031 -891.691772 785.219055 160 88 62
-706.126404 -915.836060 759.390320 144 50 35
-706.126404 -915.836060 759.390320 144 50 35
-706.126404 -915.836060 759.390320 144 50 35
